-0.0129287 -0.00310974 0.0308476
-0.0145454 -0.00282024 0.0310032
-0.0161519 -0.00253257 0.0311579
-0.0160603 -0.00252636 0.030411
-0.0159684 -0.00252013 0.0296622
-0.0158763 -0.00251388 0.0289114
-0.0157839 -0.00250762 0.0281587
-0.0156913 -0.00250134 0.0274039
-0.0189856 -0.00193486 0.0284856
-0.0188978 -0.00192787 0.0277361
-0.0188098 -0.00192085 0.0269845
-0.0187215 -0.00191382 0.026231
-0.018633 -0.00190677 0.0254755
-0.0218971 -0.00134616 0.0265693
-0.0218133 -0.00133841 0.025819
-0.0249538 -0.00077718 0.0261582
-0.0248744 -0.000768725 0.0254111
-0.0247949 -0.000760248 0.0246621
-0.0247151 -0.000751749 0.023911
-0.0246351 -0.000743228 0.0231581
-0.0245549 -0.000734684 0.0224031
-0.0244744 -0.000726118 0.0216462
-0.0243938 -0.000717529 0.0208872
-0.024313 -0.000708917 0.0201263
-0.0242319 -0.000700283 0.0193633
-0.0241506 -0.000691626 0.0185984
-0.0240691 -0.000682946 0.0178314
-0.0239874 -0.000674243 0.0170624
-0.0239055 -0.000665517 0.0162913
-0.0238234 -0.000656768 0.0155182
-0.023741 -0.000647996 0.014743
-0.0236585 -0.0006392 0.0139658
-0.0235757 -0.00063038 0.0131865
-0.0234926 -0.000621538 0.0124051
-0.0234094 -0.000612671 0.0116216
-0.0233259 -0.000603781 0.010836
-0.0232423 -0.000594867 0.0100484
-0.0231583 -0.000585929 0.00925856
-0.0230742 -0.000576967 0.00846664
-0.0229898 -0.00056798 0.00767258
-0.0229053 -0.00055897 0.00687639
0.00651319 -0.00723302 0.0549038
0.00663502 -0.00723077 0.0541849
0.00675717 -0.0072285 0.0534642
0.00327942 -0.00669298 0.0543476
0.00339639 -0.00669002 0.0536317
0.00351366 -0.00668706 0.0529138
0.00363124 -0.00668409 0.0521941
0.00374913 -0.00668111 0.0514725
0.00386733 -0.00667812 0.0507489
0.00398585 -0.00667513 0.0500234
0.000528376 -0.00614369 0.0509333
0.000641746 -0.00614001 0.0502127
0.000755415 -0.00613632 0.0494902
0.000869385 -0.00613262 0.0487657
0.000983655 -0.00612892 0.0480394
0.00109823 -0.0061252 0.0473111
-0.00233356 -0.00559852 0.0482407
-0.00222408 -0.00559412 0.0475173
-0.0021143 -0.00558972 0.046792
-0.00200424 -0.0055853 0.0460648
-0.00189388 -0.00558088 0.0453356
-0.00178324 -0.00557644 0.0446045
-0.00518944 -0.0050545 0.0455538
-0.00508382 -0.00504939 0.0448276
-0.00497793 -0.00504428 0.0440995
-0.00487176 -0.00503915 0.0433695
-0.0047653 -0.005034 0.0426376
-0.00814079 -0.00451742 0.0435996
-0.00455155 -0.00502368 0.0411679
-0.00793752 -0.00450581 0.0421436
-0.00783549 -0.00449999 0.0414128
-0.00773319 -0.00449415 0.04068
-0.00763062 -0.00448829 0.0399453
-0.00752778 -0.00448242 0.0392087
-0.00742466 -0.00447654 0.0384701
-0.00732128 -0.00447063 0.0377296
-0.00721762 -0.00446472 0.0369871
-0.00711368 -0.00445878 0.0362426
-0.00700947 -0.00445283 0.0354962
-0.00690498 -0.00444687 0.0347477
-0.00680021 -0.00444089 0.0339973
-0.00669517 -0.00443489 0.0332449
-0.00658984 -0.00442888 0.0324905
-0.00648423 -0.00442285 0.031734
-0.00637834 -0.0044168 0.0309755
-0.00979158 -0.00389729 0.0320418
-0.00969077 -0.00389059 0.0312886
-0.00958969 -0.00388387 0.0305333
-0.0129611 -0.00337106 0.0315976
-0.0127686 -0.00335631 0.0300956
-0.0160989 -0.0028501 0.0311579
-0.0160074 -0.00284208 0.030411
-0.0159157 -0.00283404 0.0296622
-0.0158237 -0.00282598 0.0289114
-0.0191185 -0.00232567 0.0299788
-0.0190313 -0.00231699 0.0292332
-0.0189438 -0.0023083 0.0284856
-0.0188562 -0.00229957 0.0277361
-0.0187683 -0.00229083 0.0269845
-0.0186802 -0.00228206 0.026231
-0.0219498 -0.00178641 0.0273176
-0.0218664 -0.00177704 0.0265693
-0.0217828 -0.00176764 0.025819
-0.0250127 -0.00127834 0.0269034
-0.0249337 -0.00126835 0.0261582
-0.0248545 -0.00125833 0.0254111
-0.0280454 -0.000775278 0.0264932
-0.0246955 -0.00123822 0.023911
-0.0246157 -0.00122813 0.0231581
-0.0245356 -0.00121801 0.0224031
-0.0244554 -0.00120786 0.0216462
-0.024375 -0.00119768 0.0208872
-0.0242943 -0.00118748 0.0201263
-0.0242134 -0.00117725 0.0193633
-0.0241323 -0.001167 0.0185984
-0.024051 -0.00115671 0.0178314
-0.0205887 -0.00163342 0.0151043
-0.0238878 -0.00113607 0.0162913
-0.0238058 -0.0011257 0.0155182
-0.022033 -0.00135855 0.0137539
-0.0236413 -0.00110489 0.0139658
-0.0235587 -0.00109444 0.0131865
-0.0234758 -0.00108397 0.0124051
-0.0233928 -0.00107346 0.0116216
-0.0233095 -0.00106293 0.010836
-0.023226 -0.00105237 0.0100484
-0.0231423 -0.00104178 0.00925856
-0.0230584 -0.00103117 0.00846664
-0.0229742 -0.00102052 0.00767258
-0.0228898 -0.00100985 0.00687639
-0.0228052 -0.000999143 0.00607804
0.00674458 -0.00701775 0.0549038
0.00686628 -0.00701154 0.0541849
0.00698829 -0.00700532 0.0534642
0.00711063 -0.00699907 0.0527416
0.0036118 -0.00657623 0.0536317
0.00372891 -0.00656946 0.0529138
0.00384633 -0.00656267 0.0521941
0.00396406 -0.00655587 0.0514725
0.00408211 -0.00654905 0.0507489
0.000614665 -0.00613064 0.0516521
0.000727559 -0.0061233 0.0509333
0.00084075 -0.00611594 0.0502127
0.000954239 -0.00610856 0.0494902
0.00106803 -0.00610117 0.0487657
0.00118212 -0.00609375 0.0480394
-0.00225957 -0.00567925 0.0489622
-0.00215057 -0.00567133 0.0482407
-0.00204128 -0.00566338 0.0475173
-0.00193171 -0.00565542 0.046792
-0.00182185 -0.00564743 0.0460648
-0.0017117 -0.00563942 0.0453356
-0.00512773 -0.00522882 0.0462781
-0.00502261 -0.00522031 0.0455538
-0.00491721 -0.00521178 0.0448276
-0.00481154 -0.00520323 0.0440995
-0.00470559 -0.00519466 0.0433695
-0.00459935 -0.00518606 0.0426376
-0.00449284 -0.00517744 0.0419037
-0.00788858 -0.00477025 0.0428726
-0.00778705 -0.00476114 0.0421436
-0.00417161 -0.00515145 0.0396905
-0.0075832 -0.00474285 0.04068
-0.00748088 -0.00473366 0.0399453
-0.00737828 -0.00472446 0.0392087
-0.00727541 -0.00471523 0.0384701
-0.00717227 -0.00470597 0.0377296
-0.00706886 -0.00469669 0.0369871
-0.00696517 -0.00468738 0.0362426
-0.00686121 -0.00467806 0.0354962
-0.00675697 -0.0046687 0.0347477
-0.00665245 -0.00465932 0.0339973
-0.00654766 -0.00464992 0.0332449
-0.00644258 -0.00464049 0.0324905
-0.00633722 -0.00463103 0.031734
-0.00623158 -0.00462155 0.0309755
-0.00612566 -0.00461205 0.030215
-0.00955935 -0.00420316 0.0312886
-0.0129404 -0.00380054 0.0323456
-0.0128448 -0.00379008 0.0315976
-0.012749 -0.0037796 0.0308476
-0.0126529 -0.00376908 0.0300956
-0.0159979 -0.00337126 0.0311579
-0.0159067 -0.00336028 0.030411
-0.0158153 -0.00334927 0.0296622
-0.0157236 -0.00333823 0.0289114
-0.0156317 -0.00332715 0.0281587
-0.018946 -0.00293364 0.0292332
-0.0188589 -0.00292211 0.0284856
-0.0187716 -0.00291055 0.0277361
-0.018684 -0.00289895 0.0269845
-0.0185962 -0.00288733 0.026231
-0.0185082 -0.00287568 0.0254755
-0.0217971 -0.00248602 0.0265693
-0.024958 -0.00208973 0.0269034
-0.0248794 -0.00207718 0.0261582
-0.0248005 -0.0020646 0.0254111
-0.0247215 -0.00205198 0.0246621
-0.0246423 -0.00203933 0.023911
-0.0245628 -0.00202665 0.0231581
-0.0244832 -0.00201394 0.0224031
-0.0244033 -0.00200119 0.0216462
-0.0243232 -0.00198841 0.0208872
-0.0242429 -0.0019756 0.0201263
-0.0241624 -0.00196275 0.0193633
-0.0240817 -0.00194986 0.0185984
-0.0240008 -0.00193695 0.0178314
-0.0239197 -0.001924 0.0170624
-0.0204382 -0.0022884 0.0143236
-0.0203513 -0.00227576 0.0135408
-0.0202642 -0.0022631 0.0127558
-0.0235929 -0.00187185 0.0139658
-0.0235107 -0.00185872 0.0131865
-0.0234283 -0.00184556 0.0124051
-0.0233456 -0.00183237 0.0116216
-0.0232627 -0.00181914 0.010836
-0.0231796 -0.00180587 0.0100484
-0.0230963 -0.00179257 0.00925856
-0.0230127 -0.00177924 0.00846664
-0.022929 -0.00176586 0.00767258
-0.022845 -0.00175246 0.00687639
-0.0227607 -0.00173901 0.00607804
-0.0226763 -0.00172553 0.00527754
0.00684135 -0.00692345 0.0549038
0.00696295 -0.00691555 0.0541849
0.00708486 -0.00690763 0.0534642
0.00358604 -0.00653383 0.0543476
0.00370274 -0.00652546 0.0536317
0.00381974 -0.00651706 0.0529138
0.00393706 -0.00650865 0.0521941
0.00405469 -0.00650021 0.0514725
0.00417263 -0.00649175 0.0507489
0.000699709 -0.00612151 0.0516521
0.00081249 -0.00611261 0.0509333
0.000925568 -0.00610368 0.0502127
0.00103894 -0.00609473 0.0494902
0.00115262 -0.00608575 0.0487657
-0.00228911 -0.00571948 0.0496819
-0.00218051 -0.00571007 0.0489622
-0.00207163 -0.00570063 0.0482407
-0.00196247 -0.00569117 0.0475173
-0.00185302 -0.00568169 0.046792
-0.00174328 -0.00567218 0.0460648
-0.00515937 -0.00530943 0.0470004
-0.00505465 -0.0052995 0.0462781
-0.00494966 -0.00528953 0.0455538
-0.00484439 -0.00527954 0.0448276
-0.00473884 -0.00526952 0.0440995
-0.00463302 -0.00525948 0.0433695
-0.00802357 -0.00490025 0.0443247
-0.00792272 -0.00488979 0.0435996
-0.0078216 -0.0048793 0.0428726
-0.00772021 -0.00486878 0.0421436
-0.00761856 -0.00485823 0.0414128
-0.00751664 -0.00484766 0.04068
-0.00741445 -0.00483705 0.0399453
-0.00731199 -0.00482642 0.0392087
-0.00720926 -0.00481577 0.0384701
-0.00710625 -0.00480508 0.0377296
-0.00700298 -0.00479436 0.0369871
-0.00689943 -0.00478362 0.0362426
-0.00679561 -0.00477285 0.0354962
-0.00669151 -0.00476205 0.0347477
-0.00658713 -0.00475122 0.0339973
-0.00648248 -0.00474036 0.0332449
-0.00637754 -0.00472947 0.0324905
-0.00627233 -0.00471856 0.031734
-0.00616683 -0.00470761 0.0309755
-0.00606105 -0.00469664 0.030215
-0.00950008 -0.00433545 0.0312886
-0.0128864 -0.00397981 0.0323456
-0.012791 -0.00396802 0.0315976
-0.0126953 -0.00395621 0.0308476
-0.0125994 -0.00394436 0.0300956
-0.0159495 -0.00359302 0.0311579
-0.0158585 -0.00358077 0.030411
-0.0157672 -0.00356849 0.0296622
-0.0156757 -0.00355617 0.0289114
-0.0189902 -0.00320907 0.0299788
-0.0189035 -0.00319636 0.0292332
-0.0188165 -0.00318362 0.0284856
-0.0187294 -0.00317085 0.0277361
-0.018642 -0.00315804 0.0269845
-0.0185544 -0.0031452 0.026231
-0.0218434 -0.00280159 0.0273176
-0.0217605 -0.00278836 0.0265693
-0.0182901 -0.00310647 0.0239585
-0.0249266 -0.00243598 0.0269034
-0.0248481 -0.00242235 0.0261582
-0.0247695 -0.00240867 0.0254111
-0.0246906 -0.00239496 0.0246621
-0.0279052 -0.00205995 0.0257512
-0.0245323 -0.00236743 0.0231581
-0.0244528 -0.00235361 0.0224031
-0.0243732 -0.00233976 0.0216462
-0.0242933 -0.00232587 0.0208872
-0.0242132 -0.00231194 0.0201263
-0.0241329 -0.00229797 0.0193633
-0.0240523 -0.00228397 0.0185984
-0.0239716 -0.00226993 0.0178314
-0.0238907 -0.00225586 0.0170624
-0.0238095 -0.00224174 0.0162913
-0.0203177 -0.00255805 0.0135408
-0.0202308 -0.00254418 0.0127558
-0.0235647 -0.00219918 0.0139658
-0.0234827 -0.00218491 0.0131865
-0.0234004 -0.00217061 0.0124051
-0.0233179 -0.00215627 0.0116216
-0.0232352 -0.00214189 0.010836
-0.0231523 -0.00212747 0.0100484
-0.0230692 -0.00211302 0.00925856
-0.0229858 -0.00209852 0.00846664
-0.0229022 -0.00208399 0.00767258
-0.0228184 -0.00206941 0.00687639
-0.0227344 -0.0020548 0.00607804
0.00698244 -0.00678113 0.0549038
0.00710385 -0.00677073 0.0541849
0.00722557 -0.0067603 0.0534642
0.00371979 -0.00645862 0.0543476
0.00747 -0.00673937 0.052017
0.00395311 -0.00643704 0.0529138
0.00407023 -0.00642621 0.0521941
0.00418765 -0.00641535 0.0514725
0.000713312 -0.00611701 0.0523689
0.000825591 -0.00610581 0.0516521
0.000938164 -0.00609459 0.0509333
0.00105103 -0.00608333 0.0502127
0.0011642 -0.00607205 0.0494902
0.00127767 -0.00606073 0.0487657
0.00139144 -0.00604939 0.0480394
-0.00206249 -0.00575375 0.0489622
-0.00195383 -0.00574208 0.0482407
-0.00184488 -0.00573037 0.0475173
-0.00173565 -0.00571863 0.046792
-0.00162613 -0.00570686 0.0460648
-0.00151632 -0.00569506 0.0453356
-0.00494447 -0.00540244 0.0462781
-0.00483971 -0.00539031 0.0455538
-0.00473467 -0.00537816 0.0448276
-0.00462935 -0.00536597 0.0440995
-0.00452376 -0.00535375 0.0433695
-0.00441789 -0.0053415 0.0426376
-0.00431173 -0.00532921 0.0419037
-0.00771948 -0.00503929 0.0428726
-0.00761833 -0.00502669 0.0421436
-0.00751692 -0.00501405 0.0414128
-0.00741524 -0.00500138 0.04068
-0.00731329 -0.00498868 0.0399453
-0.00721107 -0.00497594 0.0392087
-0.00710858 -0.00496317 0.0384701
-0.00700582 -0.00495036 0.0377296
-0.00690279 -0.00493753 0.0369871
-0.00679948 -0.00492465 0.0362426
-0.0066959 -0.00491175 0.0354962
-0.00659205 -0.0048988 0.0347477
-0.00648792 -0.00488583 0.0339973
-0.00638351 -0.00487282 0.0332449
-0.00627882 -0.00485977 0.0324905
-0.00617385 -0.00484669 0.031734
-0.0060686 -0.00483358 0.0309755
-0.00950895 -0.00454356 0.0320418
-0.00940881 -0.00453012 0.0312886
-0.0093084 -0.00451665 0.0305333
-0.0127066 -0.00423052 0.0315976
-0.0126112 -0.00421674 0.0308476
-0.0158722 -0.00392062 0.0311579
-0.0157814 -0.0039065 0.030411
-0.0156904 -0.00389235 0.0296622
-0.0190063 -0.00361381 0.0307225
-0.0189201 -0.00359936 0.0299788
-0.0188336 -0.00358487 0.0292332
-0.018747 -0.00357034 0.0284856
-0.0186601 -0.00355578 0.0277361
-0.018573 -0.00354117 0.0269845
-0.0218635 -0.0032656 0.028064
-0.0217811 -0.0032507 0.0273176
-0.0183103 -0.00349713 0.024718
-0.0216157 -0.0032208 0.025819
-0.0248711 -0.00294866 0.0269034
-0.024793 -0.00293341 0.0261582
-0.0247146 -0.00291811 0.0254111
-0.0246361 -0.00290278 0.0246621
-0.0245573 -0.00288741 0.023911
-0.0244784 -0.002872 0.0231581
-0.0243992 -0.00285655 0.0224031
-0.0243198 -0.00284106 0.0216462
-0.0242402 -0.00282552 0.0208872
-0.0241604 -0.00280995 0.0201263
-0.0240804 -0.00279433 0.0193633
-0.0240002 -0.00277868 0.0185984
-0.0239198 -0.00276298 0.0178314
-0.0238391 -0.00274724 0.0170624
-0.0237583 -0.00273146 0.0162913
-0.0236772 -0.00271563 0.0155182
-0.0218928 -0.00282937 0.0137539
-0.0235144 -0.00268386 0.0139658
-0.0234327 -0.00266791 0.0131865
-0.0233508 -0.00265192 0.0124051
-0.0232686 -0.00263588 0.0116216
-0.0231862 -0.0026198 0.010836
-0.0231036 -0.00260368 0.0100484
-0.0230208 -0.00258752 0.00925856
-0.0229377 -0.00257131 0.00846664
-0.0228545 -0.00255506 0.00767258
-0.022771 -0.00253876 0.00687639
-0.0226873 -0.00252242 0.00607804
0.007083 -0.00667603 0.0549038
0.00720423 -0.00666382 0.0541849
0.00732579 -0.00665157 0.0534642
0.00381589 -0.00640231 0.0543476
0.00756988 -0.00662698 0.052017
0.00404886 -0.00637725 0.0529138
0.0041658 -0.00636467 0.0521941
0.00428306 -0.00635206 0.0514725
0.00440062 -0.00633941 0.0507489
0.000916742 -0.00609279 0.0516521
0.00102913 -0.00607989 0.0509333
0.00114182 -0.00606695 0.0502127
0.00125481 -0.00605397 0.0494902
0.0013681 -0.00604096 0.0487657
-0.00208447 -0.00579719 0.0496819
-0.00197628 -0.00578393 0.0489622
-0.0018678 -0.00577063 0.0482407
-0.00175905 -0.0057573 0.0475173
-0.00165 -0.00574393 0.046792
-0.00154067 -0.00573053 0.0460648
-0.00143104 -0.00571709 0.0453356
-0.00486319 -0.00547572 0.0462781
-0.00475862 -0.00546203 0.0455538
-0.00465377 -0.00544831 0.0448276
-0.00454865 -0.00543455 0.0440995
-0.00444325 -0.00542075 0.0433695
-0.00433757 -0.00540692 0.0426376
-0.00423161 -0.00539305 0.0419037
-0.00764332 -0.00515409 0.0428726
-0.00754237 -0.00513997 0.0421436
-0.00744115 -0.00512582 0.0414128
-0.00733967 -0.00511163 0.04068
-0.00723792 -0.00509741 0.0399453
-0.00713591 -0.00508314 0.0392087
-0.00703362 -0.00506884 0.0384701
-0.00693106 -0.0050545 0.0377296
-0.00682823 -0.00504013 0.0369871
-0.00672513 -0.00502571 0.0362426
-0.00662176 -0.00501126 0.0354962
-0.00651811 -0.00499677 0.0347477
-0.00641418 -0.00498224 0.0339973
-0.00630998 -0.00496767 0.0332449
-0.0062055 -0.00495306 0.0324905
-0.00610073 -0.00493841 0.031734
-0.00599569 -0.00492373 0.0309755
-0.00943999 -0.00468515 0.0320418
-0.00934006 -0.00467022 0.0312886
-0.00923987 -0.00465525 0.0305333
-0.0126419 -0.00441993 0.0315976
-0.0125468 -0.00440473 0.0308476
-0.0124513 -0.00438948 0.0300956
-0.0158118 -0.00415737 0.0311579
-0.0157213 -0.0041419 0.030411
-0.0156305 -0.00412638 0.0296622
-0.0189501 -0.00389743 0.0307225
-0.0188642 -0.00388169 0.0299788
-0.018778 -0.00386591 0.0292332
-0.0186915 -0.00385009 0.0284856
-0.0186049 -0.00383423 0.0277361
-0.018518 -0.00381832 0.0269845
-0.0184309 -0.00380238 0.026231
-0.0183436 -0.00378639 0.0254755
-0.018256 -0.00377036 0.024718
-0.0181682 -0.00375429 0.0239585
-0.0248243 -0.00331999 0.0269034
-0.0247464 -0.00330358 0.0261582
-0.0246683 -0.00328712 0.0254111
-0.02459 -0.00327061 0.0246621
-0.0245114 -0.00325407 0.023911
-0.0244327 -0.00323748 0.0231581
-0.0243538 -0.00322084 0.0224031
-0.0242747 -0.00320417 0.0216462
-0.0241953 -0.00318744 0.0208872
-0.0241158 -0.00317068 0.0201263
-0.024036 -0.00315387 0.0193633
-0.023956 -0.00313702 0.0185984
-0.0238758 -0.00312012 0.0178314
-0.0237954 -0.00310318 0.0170624
-0.0237148 -0.00308619 0.0162913
-0.023634 -0.00306915 0.0155182
-0.0235529 -0.00305208 0.014743
-0.0234717 -0.00303495 0.0139658
-0.0233902 -0.00301778 0.0131865
-0.0233085 -0.00300057 0.0124051
-0.0232266 -0.00298331 0.0116216
-0.0231445 -0.002966 0.010836
-0.0230621 -0.00294864 0.0100484
-0.0229796 -0.00293124 0.00925856
-0.0228968 -0.00291379 0.00846664
-0.0228137 -0.0028963 0.00767258
-0.0227305 -0.00287876 0.00687639
-0.022647 -0.00286117 0.00607804
-0.0225633 -0.00284353 0.00527754
0.00722619 -0.00652077 0.0549038
0.00734713 -0.00650593 0.0541849
0.00746839 -0.00649105 0.0534642
0.00758998 -0.00647613 0.0527416
0.00406995 -0.00630297 0.0536317
0.00418628 -0.00628789 0.0529138
0.00430292 -0.00627278 0.0521941
0.00441988 -0.00625763 0.0514725
0.000936936 -0.00608677 0.0523689
0.00104873 -0.00607147 0.0516521
0.00116082 -0.00605612 0.0509333
0.0012732 -0.00604074 0.0502127
0.00138588 -0.00602532 0.0494902
-0.00206578 -0.00585663 0.0503996
-0.00195819 -0.00584106 0.0496819
-0.00185031 -0.00582545 0.0489622
-0.00174215 -0.0058098 0.0482407
-0.00163371 -0.00579411 0.0475173
-0.00152498 -0.00577838 0.046792
-0.00141596 -0.00576261 0.0460648
-0.00130666 -0.00574679 0.0453356
-0.00474323 -0.00557996 0.0462781
-0.00463898 -0.005564 0.0455538
-0.00453445 -0.00554801 0.0448276
-0.00442966 -0.00553197 0.0440995
-0.00432458 -0.00551589 0.0433695
-0.00421923 -0.00549976 0.0426376
-0.00763004 -0.00533498 0.0435996
-0.00752968 -0.00531872 0.0428726
-0.00742906 -0.00530242 0.0421436
-0.00732818 -0.00528608 0.0414128
-0.00722703 -0.00526969 0.04068
-0.00712561 -0.00525326 0.0399453
-0.00702393 -0.00523678 0.0392087
-0.00692198 -0.00522027 0.0384701
-0.00681976 -0.00520371 0.0377296
-0.00671726 -0.0051871 0.0369871
-0.0066145 -0.00517045 0.0362426
-0.00651146 -0.00515376 0.0354962
-0.00640815 -0.00513702 0.0347477
-0.00630456 -0.00512024 0.0339973
-0.0062007 -0.00510341 0.0332449
-0.00609656 -0.00508654 0.0324905
-0.00599214 -0.00506962 0.031734
-0.00588744 -0.00505266 0.0309755
-0.00578247 -0.00503565 0.030215
-0.00923653 -0.00487178 0.0312886
-0.00913668 -0.00485464 0.0305333
-0.0125431 -0.0046932 0.0315976
-0.0124482 -0.00467593 0.0308476
-0.0158078 -0.00451687 0.0319027
-0.0157179 -0.00449949 0.0311579
-0.0156277 -0.00448205 0.030411
-0.0184308 -0.00421923 0.0269845
-0.0183441 -0.0042014 0.026231
-0.0216474 -0.00404649 0.0273176
-0.0215654 -0.00402855 0.0265693
-0.0214832 -0.00401055 0.025819
-0.0246689 -0.00383975 0.0261582
-0.0245911 -0.0038216 0.0254111
-0.0278149 -0.00367108 0.0264932
-0.0244351 -0.00378516 0.023911
-0.0243567 -0.00376686 0.0231581
-0.0242782 -0.00374852 0.0224031
-0.0241994 -0.00373013 0.0216462
-0.0241205 -0.00371169 0.0208872
-0.0240413 -0.0036932 0.0201263
-0.0239619 -0.00367467 0.0193633
-0.0238823 -0.00365608 0.0185984
-0.0238025 -0.00363745 0.0178314
-0.0237225 -0.00361876 0.0170624
-0.0236423 -0.00360003 0.0162913
-0.0235618 -0.00358125 0.0155182
-0.0234812 -0.00356242 0.014743
-0.0234003 -0.00354353 0.0139658
-0.0233192 -0.0035246 0.0131865
-0.0232379 -0.00350561 0.0124051
-0.0231564 -0.00348658 0.0116216
-0.0230747 -0.00346749 0.010836
-0.0229927 -0.00344836 0.0100484
-0.0229105 -0.00342917 0.00925856
-0.0228281 -0.00340993 0.00846664
-0.0227455 -0.00339064 0.00767258
-0.0226627 -0.00337129 0.00687639
-0.0225796 -0.0033519 0.00607804
-0.0224963 -0.00333245 0.00527754
0.0071872 -0.00644569 0.0556207
0.00730763 -0.00642937 0.0549038
0.00742838 -0.00641301 0.0541849
0.00754944 -0.00639661 0.0534642
0.00767083 -0.00638016 0.0527416
0.0041489 -0.00625128 0.0536317
0.00426503 -0.00623475 0.0529138
0.00438148 -0.00621817 0.0521941
0.00449823 -0.00620154 0.0514725
0.00461529 -0.00618488 0.0507489
0.00112501 -0.00605779 0.0516521
0.00123689 -0.00604104 0.0509333
0.00134907 -0.00602425 0.0502127
0.00146155 -0.00600741 0.0494902
0.00157432 -0.00599053 0.0487657
-0.00188457 -0.00586523 0.0496819
-0.0017769 -0.00584826 0.0489622
-0.00166894 -0.00583125 0.0482407
-0.0015607 -0.0058142 0.0475173
-0.00145218 -0.0057971 0.046792
-0.00311956 -0.00572653 0.0468965
-0.00477644 -0.00565639 0.0470004
-0.00467267 -0.00563917 0.0462781
-0.00456863 -0.00562191 0.0455538
-0.00446432 -0.0056046 0.0448276
-0.00435973 -0.00558724 0.0440995
-0.00425486 -0.00556984 0.0433695
-0.00414972 -0.00555239 0.0426376
-0.00756233 -0.00543052 0.0435996
-0.00746219 -0.005413 0.0428726
-0.00736179 -0.00539544 0.0421436
-0.00726112 -0.00537783 0.0414128
-0.00716018 -0.00536017 0.04068
-0.00705898 -0.00534246 0.0399453
-0.00695751 -0.00532471 0.0392087
-0.00685578 -0.00530691 0.0384701
-0.00675377 -0.00528907 0.0377296
-0.00665149 -0.00527118 0.0369871
-0.00654895 -0.00525324 0.0362426
-0.00644613 -0.00523525 0.0354962
-0.00634304 -0.00521721 0.0347477
-0.00623967 -0.00519913 0.0339973
-0.00613602 -0.005181 0.0332449
-0.0060321 -0.00516282 0.0324905
-0.00592791 -0.00514459 0.031734
-0.00582343 -0.00512631 0.0309755
-0.00571867 -0.00510798 0.030215
-0.00917452 -0.00498757 0.0312886
-0.0090749 -0.00496917 0.0305333
-0.012483 -0.00485059 0.0315976
-0.0123884 -0.00483213 0.0308476
-0.0157498 -0.00471534 0.0319027
-0.0156601 -0.00469682 0.0311579
-0.0155701 -0.00467825 0.030411
-0.0187201 -0.0045259 0.0299788
-0.0186345 -0.00450718 0.0292332
-0.0185486 -0.0044884 0.0284856
-0.0184626 -0.00446958 0.0277361
-0.0183763 -0.00445071 0.0269845
-0.0182898 -0.00443179 0.026231
-0.018203 -0.00441281 0.0254755
-0.021513 -0.00429946 0.0265693
-0.0214311 -0.00428043 0.025819
-0.0213489 -0.00426136 0.0250667
-0.02295 -0.00419577 0.0252395
-0.0245411 -0.00413059 0.0254111
-0.0244634 -0.00411141 0.0246621
-0.0243855 -0.00409218 0.023911
-0.0243074 -0.0040729 0.0231581
-0.0242291 -0.00405357 0.0224031
-0.0241506 -0.00403419 0.0216462
-0.0240719 -0.00401476 0.0208872
-0.0239929 -0.00399528 0.0201263
-0.0239138 -0.00397575 0.0193633
-0.0238344 -0.00395617 0.0185984
-0.0237549 -0.00393653 0.0178314
-0.0236751 -0.00391684 0.0170624
-0.0235951 -0.0038971 0.0162913
-0.0235149 -0.00387731 0.0155182
-0.0234345 -0.00385746 0.014743
-0.0233539 -0.00383756 0.0139658
-0.0232731 -0.00381761 0.0131865
-0.023192 -0.0037976 0.0124051
-0.0231107 -0.00377755 0.0116216
-0.0230292 -0.00375743 0.010836
-0.0229475 -0.00373727 0.0100484
-0.0228656 -0.00371705 0.00925856
-0.0227835 -0.00369677 0.00846664
-0.0227011 -0.00367644 0.00767258
-0.0226185 -0.00365606 0.00687639
-0.0225357 -0.00363562 0.00607804
-0.0224526 -0.00361513 0.00527754
0.0074016 -0.00632097 0.0549038
0.00752209 -0.00630283 0.0541849
0.0076429 -0.00628464 0.0534642
0.00776403 -0.0062664 0.0527416
0.00424058 -0.00618945 0.0536317
0.00435646 -0.00617121 0.0529138
0.00447265 -0.00615291 0.0521941
0.00458914 -0.00613457 0.0514725
0.00470595 -0.00611618 0.0507489
0.00121417 -0.00604056 0.0516521
0.0013258 -0.00602216 0.0509333
0.00143772 -0.00600371 0.0502127
0.00154993 -0.00598522 0.0494902
0.00166244 -0.00596667 0.0487657
-0.00179792 -0.00589236 0.0496819
-0.00169051 -0.00587382 0.0489622
-0.00158282 -0.00585522 0.0482407
-0.00147484 -0.00583657 0.0475173
-0.00136658 -0.00581788 0.046792
-0.00125803 -0.00579913 0.0460648
-0.00458905 -0.00570743 0.0462781
-0.00448527 -0.00568863 0.0455538
-0.00438123 -0.00566979 0.0448276
-0.00427691 -0.00565089 0.0440995
-0.00417231 -0.00563195 0.0433695
-0.00758109 -0.00556034 0.0443247
-0.00748147 -0.00554139 0.0435996
-0.0073816 -0.0055224 0.0428726
-0.00728146 -0.00550336 0.0421436
-0.00718106 -0.00548426 0.0414128
-0.0070804 -0.00546512 0.04068
-0.00687827 -0.00542668 0.0392087
-0.00677681 -0.00540738 0.0384701
-0.00667508 -0.00538804 0.0377296
-0.00657308 -0.00536864 0.0369871
-0.00647081 -0.00534919 0.0362426
-0.00636827 -0.00532969 0.0354962
-0.00626545 -0.00531014 0.0347477
-0.00616236 -0.00529053 0.0339973
-0.006059 -0.00527087 0.0332449
-0.00595536 -0.00525116 0.0324905
-0.00585144 -0.0052314 0.031734
-0.00574724 -0.00521158 0.0309755
-0.00919909 -0.00514206 0.0320418
-0.00910002 -0.00512225 0.0312886
-0.00900067 -0.00510239 0.0305333
-0.0124102 -0.00503405 0.0315976
-0.0140496 -0.00499036 0.0317506
-0.0156786 -0.00494696 0.0319027
-0.0155891 -0.00492712 0.0311579
-0.0154995 -0.00490723 0.030411
-0.0154096 -0.00488728 0.0296622
-0.0153194 -0.00486728 0.0289114
-0.0186513 -0.00480132 0.0299788
-0.018566 -0.00478134 0.0292332
-0.0184805 -0.0047613 0.0284856
-0.0183947 -0.00474121 0.0277361
-0.0183087 -0.00472107 0.0269845
-0.0182225 -0.00470088 0.026231
-0.0215288 -0.00463625 0.0273176
-0.0214473 -0.00461607 0.0265693
-0.0213657 -0.00459584 0.025819
-0.0212838 -0.00457555 0.0250667
-0.0212017 -0.00455522 0.0243125
-0.0244776 -0.00449185 0.0254111
-0.0244002 -0.00447153 0.0246621
-0.0243226 -0.00445115 0.023911
-0.0242448 -0.00443073 0.0231581
-0.0241667 -0.00441025 0.0224031
-0.0274125 -0.00434812 0.0235136
-0.0240101 -0.00436912 0.0208872
-0.0239314 -0.00434848 0.0201263
-0.0238526 -0.00432778 0.0193633
-0.0237735 -0.00430703 0.0185984
-0.0236943 -0.00428622 0.0178314
-0.0236148 -0.00426536 0.0170624
-0.0235351 -0.00424444 0.0162913
-0.0234552 -0.00422347 0.0155182
-0.0233751 -0.00420244 0.014743
-0.0232948 -0.00418136 0.0139658
-0.0232143 -0.00416022 0.0131865
-0.0231335 -0.00413902 0.0124051
-0.0230525 -0.00411776 0.0116216
-0.0229714 -0.00409645 0.010836
-0.02289 -0.00407508 0.0100484
-0.0228083 -0.00405366 0.00925856
-0.0227265 -0.00403218 0.00846664
-0.0226444 -0.00401063 0.00767258
-0.0225622 -0.00398903 0.00687639
-0.0224796 -0.00396738 0.00607804
-0.0223969 -0.00394566 0.00527754
0.0073636 -0.0062434 0.0556207
0.00748353 -0.00622374 0.0549038
0.00760378 -0.00620403 0.0541849
0.00772434 -0.00618427 0.0534642
0.00420574 -0.00615324 0.0543476
0.00432107 -0.00613353 0.0536317
0.0044367 -0.00611377 0.0529138
0.00455264 -0.00609396 0.0521941
0.00466889 -0.0060741 0.0514725
0.00118189 -0.00604398 0.0523689
0.00129297 -0.00602418 0.0516521
0.00140435 -0.00600433 0.0509333
0.00151602 -0.00598442 0.0502127
0.00162798 -0.00596446 0.0494902
0.00174024 -0.00594445 0.0487657
0.0018528 -0.00592438 0.0480394
-0.00161364 -0.0058954 0.0489622
-0.0015062 -0.00587539 0.0482407
-0.00139847 -0.00585534 0.0475173
-0.00129047 -0.00583523 0.046792
-0.00118218 -0.00581507 0.0460648
-0.00461735 -0.00578698 0.0470004
-0.0045141 -0.00576689 0.0462781
-0.00441058 -0.00574674 0.0455538
-0.00430679 -0.00572653 0.0448276
-0.00420273 -0.00570628 0.0440995
-0.00409838 -0.00568597 0.0433695
-0.00399377 -0.00566561 0.0426376
-0.00740845 -0.00563865 0.0435996
-0.00730883 -0.00561835 0.0428726
-0.00720895 -0.005598 0.0421436
-0.00710881 -0.0055776 0.0414128
-0.00700841 -0.00555714 0.04068
-0.00690774 -0.00553663 0.0399453
-0.0068068 -0.00551606 0.0392087
-0.0067056 -0.00549544 0.0384701
-0.00660413 -0.00547477 0.0377296
-0.00650239 -0.00545404 0.0369871
-0.00640038 -0.00543326 0.0362426
-0.0062981 -0.00541242 0.0354962
-0.00619555 -0.00539152 0.0347477
-0.00609273 -0.00537057 0.0339973
-0.00598963 -0.00534957 0.0332449
-0.00588625 -0.00532851 0.0324905
-0.0057826 -0.00530739 0.031734
-0.00567867 -0.00528621 0.0309755
-0.00557447 -0.00526498 0.030215
-0.00903233 -0.00524068 0.0312886
-0.00893326 -0.00521952 0.0305333
-0.0123434 -0.00519573 0.0315976
-0.0122493 -0.00517464 0.0308476
-0.012155 -0.00515351 0.0300956
-0.0153444 -0.00508815 0.0296622
-0.0186718 -0.00506559 0.0307225
-0.018587 -0.00504455 0.0299788
-0.018502 -0.00502345 0.0292332
-0.0184167 -0.0050023 0.0284856
-0.0183312 -0.00498109 0.0277361
-0.0182455 -0.00495983 0.0269845
-0.0181595 -0.00493851 0.026231
-0.0180733 -0.00491713 0.0254755
-0.0213852 -0.00489584 0.0265693
-0.0213038 -0.00487454 0.025819
-0.0212222 -0.00485318 0.0250667
-0.0211404 -0.00483178 0.0243125
-0.0244168 -0.0048112 0.0254111
-0.0243397 -0.00478987 0.0246621
-0.0242623 -0.00476849 0.023911
-0.0241848 -0.00474705 0.0231581
-0.0241071 -0.00472555 0.0224031
-0.0240291 -0.00470399 0.0216462
-0.023951 -0.00468238 0.0208872
-0.0238726 -0.00466071 0.0201263
-0.023794 -0.00463899 0.0193633
-0.0237152 -0.00461721 0.0185984
-0.0236363 -0.00459537 0.0178314
-0.0235571 -0.00457347 0.0170624
-0.0234777 -0.00455151 0.0162913
-0.0233981 -0.0045295 0.0155182
-0.0233182 -0.00450742 0.014743
-0.0232382 -0.00448529 0.0139658
-0.0231579 -0.0044631 0.0131865
-0.0230775 -0.00444085 0.0124051
-0.0229968 -0.00441854 0.0116216
-0.0229159 -0.00439617 0.010836
-0.0228348 -0.00437374 0.0100484
-0.0227534 -0.00435125 0.00925856
-0.0226719 -0.0043287 0.00846664
-0.0225901 -0.00430609 0.00767258
-0.0225081 -0.00428341 0.00687639
-0.0224259 -0.00426068 0.00607804
-0.0223435 -0.00423789 0.00527754
0.00761266 -0.00606512 0.0549038
0.00773246 -0.00604289 0.0541849
0.00785258 -0.00602059 0.0534642
0.00797303 -0.00599824 0.0527416
0.004449 -0.00604138 0.0536317
0.00456419 -0.0060192 0.0529138
0.00467969 -0.00599696 0.0521941
0.00479549 -0.00597466 0.0514725
0.0049116 -0.0059523 0.0507489
0.00141927 -0.00599568 0.0516521
0.0015302 -0.00597349 0.0509333
0.00164143 -0.00595124 0.0502127
0.00175295 -0.00592894 0.0494902
0.00186477 -0.00590657 0.0487657
-0.00159612 -0.0059502 0.0496819
-0.0014894 -0.005928 0.0489622
-0.00138241 -0.00590575 0.0482407
-0.00127513 -0.00588343 0.0475173
-0.00116757 -0.00586106 0.046792
-0.00105973 -0.00583863 0.0460648
-0.00449474 -0.00588273 0.0470004
-0.00439193 -0.00586047 0.0462781
-0.00428886 -0.00583815 0.0455538
-0.00418551 -0.00581577 0.0448276
-0.00408189 -0.00579333 0.0440995
-0.00573978 -0.0058044 0.0442125
-0.00738724 -0.0058154 0.0443247
-0.0037694 -0.00572566 0.0419037
-0.00718916 -0.00577069 0.0428726
-0.00708973 -0.00574824 0.0421436
-0.00699004 -0.00572574 0.0414128
-0.00689009 -0.00570318 0.04068
-0.00678987 -0.00568056 0.0399453
-0.00668939 -0.00565787 0.0392087
-0.00658865 -0.00563513 0.0384701
-0.00998782 -0.00568086 0.0394653
-0.00989204 -0.00565829 0.0387317
-0.00618298 -0.00554356 0.0354962
-0.00608089 -0.00552052 0.0347477
-0.00597853 -0.00549741 0.0339973
-0.0058759 -0.00547424 0.0332449
-0.00577299 -0.00545101 0.0324905
-0.0056698 -0.00542772 0.031734
-0.00556634 -0.00540437 0.0309755
-0.00546261 -0.00538095 0.030215
-0.00892022 -0.00542931 0.0312886
-0.0122315 -0.00545394 0.0315976
-0.0121379 -0.00543089 0.0308476
-0.0152341 -0.00540945 0.0296622
-0.0151447 -0.0053864 0.0289114
-0.0150551 -0.00536328 0.0281587
-0.0183923 -0.00541111 0.0292332
-0.0183075 -0.00538817 0.0284856
-0.0182225 -0.00536518 0.0277361
-0.0181372 -0.00534211 0.0269845
-0.0180517 -0.00531899 0.026231
-0.0213583 -0.00536705 0.0273176
-0.0212776 -0.00534411 0.0265693
-0.0211967 -0.00532111 0.025819
-0.0211155 -0.00529804 0.0250667
-0.0210342 -0.00527492 0.0243125
-0.0243103 -0.0053232 0.0254111
-0.0242337 -0.00530025 0.0246621
-0.0241568 -0.00527725 0.023911
-0.0240797 -0.00525418 0.0231581
-0.0240024 -0.00523105 0.0224031
-0.0272485 -0.00527955 0.0235136
-0.0271758 -0.0052566 0.0227638
-0.0237694 -0.00516131 0.0201263
-0.0236913 -0.00513794 0.0193633
-0.023613 -0.0051145 0.0185984
-0.0235345 -0.00509101 0.0178314
-0.0234558 -0.00506745 0.0170624
-0.0233768 -0.00504383 0.0162913
-0.0232977 -0.00502015 0.0155182
-0.0232184 -0.0049964 0.014743
-0.0231388 -0.00497259 0.0139658
-0.023059 -0.00494872 0.0131865
-0.0229791 -0.00492478 0.0124051
-0.0228989 -0.00490078 0.0116216
-0.0228184 -0.00487672 0.010836
-0.0227378 -0.00485259 0.0100484
-0.022657 -0.00482839 0.00925856
-0.0225759 -0.00480413 0.00846664
-0.0224946 -0.00477981 0.00767258
-0.0224131 -0.00475542 0.00687639
-0.0223314 -0.00473096 0.00607804
-0.0222495 -0.00470644 0.00527754
0.0112267 -0.00592374 0.0540202
0.00766557 -0.0059981 0.0549038
0.00778518 -0.00597482 0.0541849
0.0079051 -0.00595147 0.0534642
0.00802534 -0.00592806 0.0527416
0.00450183 -0.00600212 0.0536317
0.00461682 -0.00597892 0.0529138
0.00473212 -0.00595567 0.0521941
0.00484772 -0.00593235 0.0514725
0.00136137 -0.0060061 0.0523689
0.00147182 -0.005983 0.0516521
0.00158255 -0.00595984 0.0509333
0.00169358 -0.00593661 0.0502127
0.0018049 -0.00591333 0.0494902
0.00191651 -0.00588998 0.0487657
0.00202842 -0.00586657 0.0480394
-0.00143734 -0.00594084 0.0489622
-0.00133054 -0.00591765 0.0482407
-0.00122347 -0.00589439 0.0475173
-0.00111611 -0.00587108 0.046792
-0.00100846 -0.0058477 0.0460648
-0.000900535 -0.00582426 0.0453356
-0.00434035 -0.00589877 0.0462781
-0.00423747 -0.00587555 0.0455538
-0.00413433 -0.00585226 0.0448276
-0.00403091 -0.00582892 0.0440995
-0.00392722 -0.00580551 0.0433695
-0.00382326 -0.00578204 0.0426376
-0.00371902 -0.00575851 0.0419037
-0.00361451 -0.00573491 0.0411679
-0.00703903 -0.00581022 0.0421436
-0.00693954 -0.00578684 0.0414128
-0.00683979 -0.0057634 0.04068
-0.00673978 -0.0057399 0.0399453
-0.0066395 -0.00571634 0.0392087
-0.00653896 -0.00569272 0.0384701
-0.00643815 -0.00566903 0.0377296
-0.00633707 -0.00564528 0.0369871
-0.00623573 -0.00562147 0.0362426
-0.00613411 -0.00559759 0.0354962
-0.00603223 -0.00557365 0.0347477
-0.00593007 -0.00554965 0.0339973
-0.00582765 -0.00552558 0.0332449
-0.00572494 -0.00550145 0.0324905
-0.00562197 -0.00547726 0.031734
-0.00551872 -0.00545299 0.0309755
-0.00541519 -0.00542867 0.030215
-0.00887224 -0.00550736 0.0312886
-0.0122763 -0.00558485 0.0323456
-0.0121832 -0.00556104 0.0315976
-0.0120898 -0.00553717 0.0308476
-0.0154523 -0.00561404 0.0319027
-0.0153638 -0.00559039 0.0311579
-0.015275 -0.00556667 0.030411
-0.0151861 -0.00554289 0.0296622
-0.0150969 -0.00551905 0.0289114
-0.0184285 -0.00559588 0.0299788
-0.0183441 -0.00557226 0.0292332
-0.0182595 -0.00554858 0.0284856
-0.0181747 -0.00552483 0.0277361
-0.0180896 -0.00550103 0.0269845
-0.0180044 -0.00547716 0.026231
-0.0179189 -0.00545322 0.0254755
-0.0212299 -0.00553057 0.0265693
-0.0211492 -0.00550686 0.025819
-0.0210682 -0.00548309 0.0250667
-0.0209871 -0.00545925 0.0243125
-0.0209057 -0.00543535 0.0235563
-0.0241862 -0.00551265 0.0246621
-0.0241096 -0.00548897 0.023911
-0.0240327 -0.00546523 0.0231581
-0.0272734 -0.00554192 0.0242614
-0.0238784 -0.00541756 0.0216462
-0.0238009 -0.00539363 0.0208872
-0.0237232 -0.00536964 0.0201263
-0.0236453 -0.00534558 0.0193633
-0.0235672 -0.00532146 0.0185984
-0.0234889 -0.00529728 0.0178314
-0.0234104 -0.00527303 0.0170624
-0.0233317 -0.00524872 0.0162913
-0.0232528 -0.00522434 0.0155182
-0.0231736 -0.0051999 0.014743
-0.0230943 -0.0051754 0.0139658
-0.0230147 -0.00515083 0.0131865
-0.022935 -0.00512619 0.0124051
-0.022855 -0.00510148 0.0116216
-0.0227748 -0.00507672 0.010836
-0.0226944 -0.00505188 0.0100484
-0.0226137 -0.00502698 0.00925856
-0.0225329 -0.00500201 0.00846664
-0.0224518 -0.00497697 0.00767258
-0.0223706 -0.00495187 0.00687639
-0.0222891 -0.0049267 0.00607804
-0.0222073 -0.00490146 0.00527754
0.00776082 -0.00587434 0.0549038
0.00788004 -0.00584914 0.0541849
0.00799957 -0.00582387 0.0534642
0.00811942 -0.00579854 0.0527416
0.00459755 -0.00592911 0.0536317
0.00471216 -0.00590408 0.0529138
0.00482707 -0.00587898 0.0521941
0.00494228 -0.00585381 0.0514725
0.00145756 -0.00598349 0.0523689
0.00156762 -0.00595861 0.0516521
0.00167797 -0.00593368 0.0509333
0.00178861 -0.00590868 0.0502127
0.00189954 -0.00588361 0.0494902
0.00201077 -0.00585847 0.0487657
-0.00144797 -0.00598798 0.0496819
-0.00134184 -0.00596314 0.0489622
-0.00123542 -0.00593823 0.0482407
-0.00112873 -0.00591326 0.0475173
-0.00102176 -0.00588823 0.046792
-0.000914508 -0.00586313 0.0460648
-0.00434737 -0.00599246 0.0470004
-0.00414266 -0.00594278 0.0455538
-0.0040399 -0.00591784 0.0448276
-0.00393687 -0.00589284 0.0440995
-0.00383357 -0.00586777 0.0433695
-0.00373 -0.00584264 0.0426376
-0.00714233 -0.00597216 0.0435996
-0.00704374 -0.00594732 0.0428726
-0.0069449 -0.00592241 0.0421436
-0.0068458 -0.00589744 0.0414128
-0.00674644 -0.00587241 0.04068
-0.00664681 -0.0058473 0.0399453
-0.00654693 -0.00582214 0.0392087
-0.00644678 -0.0057969 0.0384701
-0.00634636 -0.0057716 0.0377296
-0.00624568 -0.00574623 0.0369871
-0.00614473 -0.0057208 0.0362426
-0.00604351 -0.00569529 0.0354962
-0.00594202 -0.00566972 0.0347477
-0.00584027 -0.00564408 0.0339973
-0.00573824 -0.00561838 0.0332449
-0.00563594 -0.0055926 0.0324905
-0.00553336 -0.00556675 0.031734
-0.00543052 -0.00554084 0.0309755
-0.00888047 -0.00567461 0.0320418
-0.00878273 -0.00564901 0.0312886
-0.00868474 -0.00562333 0.0305333
-0.0120924 -0.0057558 0.0315976
-0.0119994 -0.00573043 0.0308476
-0.0119061 -0.005705 0.0300956
-0.0152721 -0.00583618 0.0311579
-0.0151837 -0.00581104 0.030411
-0.0150952 -0.00578584 0.0296622
-0.0150064 -0.00576057 0.0289114
-0.0183364 -0.00589084 0.0299788
-0.0182524 -0.00586587 0.0292332
-0.0181682 -0.00584084 0.0284856
-0.0180837 -0.00581573 0.0277361
-0.0213782 -0.00594511 0.0288084
-0.0179142 -0.00576533 0.026231
-0.0212186 -0.00589543 0.0273176
-0.0211384 -0.00587049 0.0265693
-0.0210581 -0.00584549 0.025819
-0.0209775 -0.00582041 0.0250667
-0.0208968 -0.00579528 0.0243125
-0.0241708 -0.00592485 0.0254111
-0.0240947 -0.0059 0.0246621
-0.0240184 -0.0058751 0.023911
-0.0272526 -0.00600342 0.0250072
-0.0255305 -0.00590229 0.0233364
-0.0237884 -0.00579998 0.0216462
-0.0237113 -0.00577481 0.0208872
-0.023634 -0.00574958 0.0201263
-0.0235565 -0.00572428 0.0193633
-0.0234788 -0.00569891 0.0185984
-0.0234009 -0.00567347 0.0178314
-0.0233228 -0.00564797 0.0170624
-0.0232445 -0.0056224 0.0162913
-0.023166 -0.00559676 0.0155182
-0.0230872 -0.00557105 0.014743
-0.0230083 -0.00554527 0.0139658
-0.0229291 -0.00551943 0.0131865
-0.0228498 -0.00549351 0.0124051
-0.0227702 -0.00546753 0.0116216
-0.0226904 -0.00544148 0.010836
-0.0226104 -0.00541535 0.0100484
-0.0225302 -0.00538916 0.00925856
-0.0224497 -0.0053629 0.00846664
-0.0223691 -0.00533656 0.00767258
-0.0222882 -0.00531016 0.00687639
-0.0222071 -0.00528368 0.00607804
-0.0221258 -0.00525714 0.00527754
0.0078789 -0.00571499 0.0549038
0.00799758 -0.00568737 0.0541849
0.00811657 -0.00565967 0.0534642
0.00823588 -0.0056319 0.0527416
0.0047174 -0.00583421 0.0536317
0.00483147 -0.00580684 0.0529138
0.00494585 -0.00577941 0.0521941
0.00506052 -0.0057519 0.0514725
0.00157917 -0.00595255 0.0523689
0.0016887 -0.00592544 0.0516521
0.00179852 -0.00589826 0.0509333
0.00190863 -0.00587101 0.0502127
0.00201903 -0.00584368 0.0494902
0.00212972 -0.00581629 0.0487657
-0.00132566 -0.00601624 0.0496819
-0.00122006 -0.00598924 0.0489622
-0.00111418 -0.00596217 0.0482407
-0.00100802 -0.00593503 0.0475173
-0.000901577 -0.00590783 0.046792
-0.0043258 -0.0061066 0.0477209
-0.00422437 -0.00607979 0.0470004
-0.00412267 -0.00605291 0.0462781
-0.00402071 -0.00602595 0.0455538
-0.00391848 -0.00599893 0.0448276
-0.00381599 -0.00597183 0.0440995
-0.00371322 -0.00594466 0.0433695
-0.00361018 -0.00591742 0.0426376
-0.00701916 -0.00611644 0.0435996
-0.00692111 -0.0060896 0.0428726
-0.00682279 -0.00606268 0.0421436
-0.00672422 -0.0060357 0.0414128
-0.00662539 -0.00600864 0.04068
-0.0065263 -0.00598152 0.0399453
-0.00642694 -0.00595432 0.0392087
-0.00632733 -0.00592705 0.0384701
-0.00972096 -0.00612631 0.0394653
-0.0061273 -0.00587229 0.0369871
-0.00602689 -0.00584481 0.0362426
-0.00592622 -0.00581725 0.0354962
-0.00582527 -0.00578961 0.0347477
-0.00572406 -0.00576191 0.0339973
-0.00562257 -0.00573412 0.0332449
-0.00552082 -0.00570627 0.0324905
-0.00541879 -0.00567834 0.031734
-0.00531649 -0.00565034 0.0309755
-0.00876301 -0.00585437 0.0320418
-0.00866581 -0.00582678 0.0312886
-0.0120648 -0.00602817 0.0323456
-0.0119726 -0.00600099 0.0315976
-0.0118801 -0.00597373 0.0308476
-0.0117874 -0.0059464 0.0300956
-0.01515 -0.00614613 0.0311579
-0.0150622 -0.0061192 0.030411
-0.0149742 -0.0060922 0.0296622
-0.0148859 -0.00606513 0.0289114
-0.0182125 -0.00626322 0.0299788
-0.0181291 -0.00623654 0.0292332
-0.0180454 -0.0062098 0.0284856
-0.0179615 -0.00618298 0.0277361
-0.0178773 -0.00615609 0.0269845
-0.017793 -0.00612913 0.026231
-0.0177084 -0.0061021 0.0254755
-0.0210144 -0.00629996 0.0265693
-0.0209346 -0.00627333 0.025819
-0.0208546 -0.00624662 0.0250667
-0.0207744 -0.00621985 0.0243125
-0.0206939 -0.006193 0.0235563
-0.0239695 -0.00638971 0.0246621
-0.0238937 -0.00636325 0.023911
-0.0238177 -0.00633673 0.0231581
-0.0237416 -0.00631013 0.0224031
-0.0236652 -0.00628347 0.0216462
-0.0235887 -0.00625673 0.0208872
-0.0235119 -0.00622993 0.0201263
-0.023435 -0.00620305 0.0193633
-0.0233578 -0.0061761 0.0185984
-0.0232804 -0.00614908 0.0178314
-0.0232029 -0.00612199 0.0170624
-0.0231251 -0.00609483 0.0162913
-0.0230471 -0.0060676 0.0155182
-0.0229689 -0.00604029 0.014743
-0.0228905 -0.00601291 0.0139658
-0.0228119 -0.00598546 0.0131865
-0.0227331 -0.00595794 0.0124051
-0.0226541 -0.00593034 0.0116216
-0.0225748 -0.00590266 0.010836
-0.0224954 -0.00587492 0.0100484
-0.0224157 -0.00584709 0.00925856
-0.0223358 -0.0058192 0.00846664
-0.0222557 -0.00579123 0.00767258
-0.0221754 -0.00576318 0.00687639
-0.0220949 -0.00573505 0.00607804
-0.0220141 -0.00570686 0.00527754
0.00802952 -0.00564219 0.0541849
0.00814835 -0.00561383 0.0534642
0.0082675 -0.00558538 0.0527416
0.00475022 -0.00580752 0.0536317
0.00486413 -0.00577951 0.0529138
0.00497835 -0.00575143 0.0521941
0.00509287 -0.00572328 0.0514725
0.00520769 -0.00569505 0.0507489
0.00172208 -0.00591582 0.0516521
0.00183174 -0.00588803 0.0509333
0.0019417 -0.00586015 0.0502127
0.00205194 -0.00583221 0.0494902
0.00216247 -0.00580419 0.0487657
-0.00129173 -0.00602361 0.0496819
-0.00118628 -0.00599602 0.0489622
-0.00108055 -0.00596836 0.0482407
-0.000974544 -0.00594062 0.0475173
-0.000868259 -0.00591281 0.046792
-0.000761694 -0.00588493 0.0460648
-0.000654848 -0.00585698 0.0453356
-0.00408849 -0.00607605 0.0462781
-0.00398668 -0.00604852 0.0455538
-0.0038846 -0.00602092 0.0448276
-0.00378226 -0.00599325 0.0440995
-0.00367965 -0.0059655 0.0433695
-0.00357676 -0.00593768 0.0426376
-0.00698457 -0.00615591 0.0435996
-0.00688667 -0.00612852 0.0428726
-0.00678851 -0.00610105 0.0421436
-0.00669009 -0.00607351 0.0414128
-0.00659141 -0.0060459 0.04068
-0.00649247 -0.00601821 0.0399453
-0.00639327 -0.00599046 0.0392087
-0.00978053 -0.00620834 0.040197
-0.00619409 -0.00593472 0.0377296
-0.00959176 -0.0061536 0.0387317
-0.009497 -0.00612613 0.0379962
-0.00579254 -0.00582236 0.0347477
-0.00569148 -0.00579408 0.0339973
-0.00559016 -0.00576573 0.0332449
-0.00548856 -0.0057373 0.0324905
-0.0053867 -0.0057088 0.031734
-0.00528456 -0.00568022 0.0309755
-0.00518214 -0.00565156 0.030215
-0.00863283 -0.00587554 0.0312886
-0.0120306 -0.00609609 0.0323456
-0.0119386 -0.00606838 0.0315976
-0.0118463 -0.0060406 0.0308476
-0.0152025 -0.00625879 0.0319027
-0.0151151 -0.00623144 0.0311579
-0.0150275 -0.00620401 0.030411
-0.0149396 -0.00617652 0.0296622
-0.01826 -0.00639287 0.0307225
-0.0181769 -0.00636579 0.0299788
-0.0180936 -0.00633864 0.0292332
-0.0180101 -0.00631143 0.0284856
-0.0179263 -0.00628413 0.0277361
-0.0178423 -0.00625677 0.0269845
-0.0177582 -0.00622934 0.026231
-0.021058 -0.00644534 0.0273176
-0.0209786 -0.00641833 0.0265693
-0.0208989 -0.00639124 0.025819
-0.020819 -0.00636409 0.0250667
-0.020739 -0.00633686 0.0243125
-0.0206587 -0.00630956 0.0235563
-0.0239331 -0.00652473 0.0246621
-0.0238575 -0.00649785 0.023911
-0.0237816 -0.00647089 0.0231581
-0.0237056 -0.00644387 0.0224031
-0.0236294 -0.00641677 0.0216462
-0.023553 -0.00638961 0.0208872
-0.0234764 -0.00636237 0.0201263
-0.0233996 -0.00633506 0.0193633
-0.0233226 -0.00630768 0.0185984
-0.0232454 -0.00628023 0.0178314
-0.023168 -0.0062527 0.0170624
-0.0230904 -0.0062251 0.0162913
-0.0230125 -0.00619743 0.0155182
-0.0229345 -0.00616968 0.014743
-0.0228563 -0.00614186 0.0139658
-0.0227778 -0.00611396 0.0131865
-0.0226991 -0.00608599 0.0124051
-0.0226203 -0.00605795 0.0116216
-0.0225412 -0.00602983 0.010836
-0.0224619 -0.00600164 0.0100484
-0.0223824 -0.00597336 0.00925856
-0.0223027 -0.00594502 0.00846664
-0.0222227 -0.0059166 0.00767258
-0.0221426 -0.0058881 0.00687639
-0.0220622 -0.00585952 0.00607804
-0.0219816 -0.00583087 0.00527754
0.00832333 -0.00535097 0.0534642
0.00844151 -0.00531874 0.0527416
0.0049331 -0.00565299 0.0536317
0.00504607 -0.00562137 0.0529138
0.00515933 -0.00558966 0.0521941
0.00527289 -0.00555786 0.0514725
0.00180153 -0.00588906 0.0523689
0.00190996 -0.00585786 0.0516521
0.00201868 -0.00582658 0.0509333
0.00212769 -0.00579521 0.0502127
0.00223699 -0.00576377 0.0494902
-0.00120311 -0.00609262 0.0503996
-0.00109887 -0.00606176 0.0496819
-0.000994352 -0.00603082 0.0489622
-0.000889561 -0.0059998 0.0482407
-0.000784495 -0.00596869 0.0475173
-0.000679151 -0.00593751 0.046792
-0.00057353 -0.00590624 0.0460648
-0.00399314 -0.0062341 0.0470004
-0.00389253 -0.00620341 0.0462781
-0.00379165 -0.00617265 0.0455538
-0.00369051 -0.00614181 0.0448276
-0.0035891 -0.00611088 0.0440995
-0.00348743 -0.00607987 0.0433695
-0.00338548 -0.00604878 0.0426376
-0.00678459 -0.00637564 0.0435996
-0.00668761 -0.00634514 0.0428726
-0.00659038 -0.00631455 0.0421436
-0.00649289 -0.00628388 0.0414128
-0.00639514 -0.00625314 0.04068
-0.00629714 -0.00622231 0.0399453
-0.00619888 -0.0061914 0.0392087
-0.00957746 -0.00651726 0.040197
-0.00600157 -0.00612934 0.0377296
-0.00590253 -0.00609818 0.0369871
-0.00929669 -0.00642604 0.0379962
-0.00570365 -0.00603563 0.0354962
-0.00560381 -0.00600422 0.0347477
-0.00550371 -0.00597274 0.0339973
-0.00540334 -0.00594116 0.0332449
-0.0053027 -0.00590951 0.0324905
-0.0052018 -0.00587777 0.031734
-0.00510062 -0.00584594 0.0309755
-0.00853705 -0.00617923 0.0320418
-0.00844096 -0.006148 0.0312886
-0.00834461 -0.0061167 0.0305333
-0.0117388 -0.00644623 0.0315976
-0.0116475 -0.00641552 0.0308476
-0.0149951 -0.00674069 0.0319027
-0.0149086 -0.00671056 0.0311579
-0.0148219 -0.00668035 0.030411
-0.0147349 -0.00665006 0.0296622
-0.0146477 -0.00661969 0.0289114
-0.0179646 -0.00694254 0.0299788
-0.0178822 -0.00691275 0.0292332
-0.0177995 -0.00688288 0.0284856
-0.0177167 -0.00685293 0.0277361
-0.0176336 -0.0068229 0.0269845
-0.02092 -0.00714344 0.028064
-0.0208417 -0.00711398 0.0273176
-0.0207631 -0.00708444 0.0265693
-0.0206843 -0.00705483 0.025819
-0.0206054 -0.00702514 0.0250667
-0.0205262 -0.00699537 0.0243125
-0.0204468 -0.00696552 0.0235563
-0.0203672 -0.00693559 0.022798
-0.023638 -0.00725578 0.023911
-0.0235631 -0.00722642 0.0231581
-0.023488 -0.00719699 0.0224031
-0.0234127 -0.00716747 0.0216462
-0.0233372 -0.00713788 0.0208872
-0.0232615 -0.00710821 0.0201263
-0.0231856 -0.00707847 0.0193633
-0.0231095 -0.00704864 0.0185984
-0.0230332 -0.00701874 0.0178314
-0.0229567 -0.00698876 0.0170624
-0.02288 -0.00695869 0.0162913
-0.0228031 -0.00692855 0.0155182
-0.022726 -0.00689833 0.014743
-0.0226486 -0.00686803 0.0139658
-0.0225711 -0.00683764 0.0131865
-0.0224934 -0.00680718 0.0124051
-0.0224155 -0.00677663 0.0116216
-0.0223373 -0.006746 0.010836
-0.022259 -0.00671529 0.0100484
-0.0221804 -0.0066845 0.00925856
-0.0221016 -0.00665362 0.00846664
-0.0220226 -0.00662266 0.00767258
-0.0219434 -0.00659162 0.00687639
-0.021864 -0.00656049 0.00607804
-0.0217844 -0.00652928 0.00527754
0.00842708 -0.00518603 0.0534642
0.00854461 -0.00515148 0.0527416
0.00866244 -0.00511684 0.052017
0.00515578 -0.00552091 0.0529138
0.0052684 -0.00548698 0.0521941
0.00538131 -0.00545295 0.0514725
0.00191715 -0.00585245 0.0523689
0.00202495 -0.00581912 0.0516521
0.00213303 -0.0057857 0.0509333
0.0022414 -0.00575219 0.0502127
0.00235005 -0.0057186 0.0494902
-0.0010829 -0.00611513 0.0503996
-0.000979288 -0.00608223 0.0496819
-0.000875401 -0.00604923 0.0489622
-0.000771242 -0.00601615 0.0482407
-0.00396934 -0.00634409 0.0477209
-0.00386961 -0.00631152 0.0470004
-0.00376962 -0.00627886 0.0462781
-0.00366937 -0.00624612 0.0455538
-0.00356885 -0.00621329 0.0448276
-0.00346807 -0.00618037 0.0440995
-0.00336703 -0.00614737 0.0433695
-0.00326572 -0.00611428 0.0426376
-0.00665773 -0.00650801 0.0435996
-0.00656137 -0.0064756 0.0428726
-0.00646476 -0.0064431 0.0421436
-0.00627077 -0.00637786 0.04068
-0.00617339 -0.00634511 0.0399453
-0.00607575 -0.00631227 0.0392087
-0.00597786 -0.00627934 0.0384701
-0.00587971 -0.00624633 0.0377296
-0.00926157 -0.00664019 0.0387317
-0.00916835 -0.00660786 0.0379962
-0.00558369 -0.00614677 0.0354962
-0.00548449 -0.00611341 0.0347477
-0.00538503 -0.00607996 0.0339973
-0.0052853 -0.00604641 0.0332449
-0.00518531 -0.00601278 0.0324905
