-0.00418807 -0.019336 0.0478832
-0.00427184 -0.0214719 0.0480953
-0.00423121 -0.0216129 0.0474878
-0.00419049 -0.0217541 0.046879
-0.00414969 -0.0218956 0.0462689
-0.0041113 -0.0244555 0.0446545
-0.00407037 -0.0245999 0.0440414
-0.00402936 -0.0247447 0.0434271
-0.00352734 -0.0240541 0.0369636
-0.00348515 -0.0242005 0.0363328
-0.00344287 -0.0243471 0.0357006
-0.0034005 -0.0244941 0.0350671
-0.00335804 -0.0246413 0.0344323
-0.00331549 -0.0247889 0.0337961
-0.00327285 -0.0249368 0.0331585
-0.0030114 -0.0233444 0.030321
-0.0031873 -0.0252335 0.0318793
-0.00314438 -0.0253824 0.0312377
-0.00310138 -0.0255315 0.0305947
-0.00305828 -0.025681 0.0299503
-0.00301509 -0.0258308 0.0293046
-0.00297181 -0.0259809 0.0286575
-0.000976545 -0.0144241 0.00674685
-0.000928476 -0.0145699 0.0060371
-0.000880299 -0.014716 0.00532574
-0.000832012 -0.0148625 0.00461276
-0.000783615 -0.0150093 0.00389817
-0.000982633 -0.0170596 0.00569879
-0.000934623 -0.0172083 0.00498862
-0.000886504 -0.0173572 0.00427684
-0.000838276 -0.0175065 0.00356345
-0.00103655 -0.0195384 0.00536198
-0.000988707 -0.0196895 0.00465299
-0.000940756 -0.0198409 0.0039424
-0.000892696 -0.0199927 0.00323021
-0.000844527 -0.0201448 0.0025164
-0.00079625 -0.0202973 0.00180098
-0.000994769 -0.0223137 0.00360944
-0.000946876 -0.0224679 0.00289844
-0.000898874 -0.0226225 0.00218583
-0.00100685 -0.0275452 0.00152904
-0.00473334 -0.0199011 0.0647654
-0.00469029 -0.0200344 0.0641935
-0.00464714 -0.020168 0.0636205
-0.00460391 -0.0203018 0.0630463
-0.00456059 -0.0204359 0.0624709
-0.00451719 -0.0205703 0.0618944
-0.00447369 -0.020705 0.0613168
-0.00443011 -0.0208399 0.0607379
-0.00438644 -0.0209751 0.0601579
-0.00434268 -0.0211105 0.0595767
-0.00357356 -0.0192013 0.0490987
-0.00352787 -0.0193383 0.0484916
-0.00348209 -0.0194755 0.0478832
-0.00343622 -0.0196131 0.0472736
-0.00339024 -0.0197509 0.0466627
-0.00348812 -0.0216131 0.0480953
-0.00344239 -0.0217525 0.0474878
-0.00339657 -0.0218921 0.046879
-0.00335065 -0.022032 0.0462689
-0.00331121 -0.0243039 0.0458767
-0.00326525 -0.0244462 0.0452662
-0.00321919 -0.0245888 0.0446545
-0.00279206 -0.0237342 0.0388482
-0.00274488 -0.023878 0.0382213
-0.00269759 -0.0240221 0.0375932
-0.00265021 -0.0241665 0.0369636
-0.00260272 -0.0243112 0.0363328
-0.00255514 -0.0244562 0.0357006
-0.00250745 -0.0246015 0.0350671
-0.00245966 -0.0247472 0.0344323
-0.00241177 -0.0248931 0.0337961
-0.00236378 -0.0250393 0.0331585
-0.00231569 -0.0251859 0.0325196
-0.0022675 -0.0253328 0.0318793
-0.0022192 -0.0254799 0.0312377
-0.0021708 -0.0256274 0.0305947
-0.00212229 -0.0257752 0.0299503
-0.00207369 -0.0259234 0.0293046
-0.00202497 -0.0260718 0.0286575
-0.000504545 -0.0143064 0.007455
-0.000451326 -0.0144501 0.00674685
-0.000397986 -0.014594 0.0060371
-0.000344525 -0.0147383 0.00532574
-0.000290943 -0.014883 0.00461276
-0.000414824 -0.0169376 0.00640737
-0.00036156 -0.0170841 0.00569879
-0.000308177 -0.0172309 0.00498862
-0.000254672 -0.017378 0.00427684
-0.000201046 -0.0175254 0.00356345
-0.000325296 -0.0195631 0.00536198
-0.000271988 -0.0197124 0.00465299
-0.000218561 -0.019862 0.0039424
-0.000165013 -0.020012 0.00323021
-0.000111343 -0.0201622 0.0025164
-5.75523e-05 -0.0203129 0.00180098
-0.000182609 -0.0223351 0.00360944
-0.000129138 -0.0224875 0.00289844
-7.55466e-05 -0.0226402 0.00218583
-4.42502e-06 -0.0275636 0.00152904
-0.00498311 -0.01984 0.0647654
-0.00494174 -0.0199739 0.0641935
-0.00490027 -0.020108 0.0636205
-0.00485873 -0.0202423 0.0630463
-0.0048171 -0.020377 0.0624709
-0.00477539 -0.0205119 0.0618944
-0.00473359 -0.0206471 0.0613168
-0.00469171 -0.0207825 0.0607379
-0.00464974 -0.0209183 0.0601579
-0.00381463 -0.0191548 0.0490987
-0.00377067 -0.0192924 0.0484916
-0.00372661 -0.0194302 0.0478832
-0.00368247 -0.0195683 0.0472736
-0.00363823 -0.0197068 0.0466627
-0.00375951 -0.0215676 0.0480953
-0.00371554 -0.0217075 0.0474878
-0.00367147 -0.0218477 0.046879
-0.00362731 -0.0219882 0.0462689
-0.00358306 -0.022129 0.0456576
-0.00353872 -0.0222701 0.045045
-0.00299932 -0.0239863 0.0375932
-0.00295376 -0.0241313 0.0369636
-0.00290809 -0.0242766 0.0363328
-0.00286234 -0.0244222 0.0357006
-0.00281648 -0.0245681 0.0350671
-0.00277053 -0.0247143 0.0344323
-0.00272448 -0.0248608 0.0337961
-0.00267833 -0.0250076 0.0331585
-0.00263208 -0.0251548 0.0325196
-0.00258573 -0.0253023 0.0318793
-0.00253929 -0.02545 0.0312377
-0.00249275 -0.0255981 0.0305947
-0.00244611 -0.0257465 0.0299503
-0.00239936 -0.0258952 0.0293046
-0.000684328 -0.0142989 0.007455
-0.000632918 -0.0144432 0.00674685
-0.000581392 -0.0145879 0.0060371
-0.000529749 -0.0147328 0.00532574
-0.000477989 -0.0148781 0.00461276
-0.000627686 -0.0169311 0.00640737
-0.000576268 -0.0170782 0.00569879
-0.000524734 -0.0172256 0.00498862
-0.000473082 -0.0173734 0.00427684
-0.000421314 -0.0175215 0.00356345
-0.000571167 -0.0195575 0.00536198
-0.00051974 -0.0197074 0.00465299
-0.000468197 -0.0198577 0.0039424
-0.000416538 -0.0200083 0.00323021
-0.000364761 -0.0201592 0.0025164
-0.000312868 -0.0203105 0.00180098
-0.000463333 -0.022331 0.00360944
-0.000411782 -0.0224841 0.00289844
-0.000360115 -0.0226375 0.00218583
-0.000475767 -0.0415611 0.0016976
-0.00504652 -0.019824 0.0647654
-0.00500557 -0.019958 0.0641935
-0.00496454 -0.0200922 0.0636205
-0.00492342 -0.0202267 0.0630463
-0.00488222 -0.0203615 0.0624709
-0.00484094 -0.0204965 0.0618944
-0.00479957 -0.0206318 0.0613168
-0.00475813 -0.0207674 0.0607379
-0.00374874 -0.0172678 0.0476699
-0.00387585 -0.0191425 0.0490987
-0.00383233 -0.0192802 0.0484916
-0.00378871 -0.0194182 0.0478832
-0.00374501 -0.0195565 0.0472736
-0.00370122 -0.019695 0.0466627
-0.00382845 -0.0215554 0.0480953
-0.00378492 -0.0216955 0.0474878
-0.0037413 -0.0218358 0.046879
-0.00369759 -0.0219765 0.0462689
-0.00365379 -0.0221174 0.0456576
-0.0036099 -0.0222586 0.045045
-0.00356592 -0.0224002 0.0444311
-0.00352184 -0.022542 0.043816
-0.00316592 -0.0236873 0.0388482
-0.003121 -0.0238318 0.0382213
-0.00307599 -0.0239766 0.0375932
-0.00303089 -0.0241217 0.0369636
-0.00298569 -0.0242672 0.0363328
-0.0029404 -0.0244129 0.0357006
-0.00289501 -0.0245589 0.0350671
-0.00284953 -0.0247053 0.0344323
-0.00280394 -0.024852 0.0337961
-0.00275826 -0.024999 0.0331585
-0.00271249 -0.0251463 0.0325196
-0.00266662 -0.0252939 0.0318793
-0.00262064 -0.0254418 0.0312377
-0.00257457 -0.02559 0.0305947
-0.00252841 -0.0257386 0.0299503
-0.00073004 -0.0142967 0.007455
-0.000679091 -0.0144411 0.00674685
-0.000628028 -0.0145859 0.0060371
-0.000576849 -0.0147311 0.00532574
-0.000525554 -0.0148765 0.00461276
-0.000474142 -0.0150223 0.00389817
-0.000630866 -0.0170762 0.00569879
-0.000579803 -0.0172239 0.00498862
-0.000528624 -0.0173718 0.00427684
-0.00047733 -0.0175201 0.00356345
-0.000633691 -0.0195556 0.00536198
-0.000582744 -0.0197057 0.00465299
-0.000531682 -0.0198561 0.0039424
-0.000480504 -0.0200069 0.00323021
-0.000429211 -0.020158 0.0025164
-0.000377801 -0.0203094 0.00180098
-0.000534725 -0.0223295 0.00360944
-0.000483664 -0.0224827 0.00289844
-0.000432487 -0.0226362 0.00218583
-0.00480409 -0.0197613 0.0653362
-0.0047613 -0.0198944 0.0647654
-0.00471843 -0.0200278 0.0641935
-0.00467548 -0.0201614 0.0636205
-0.00463243 -0.0202953 0.0630463
-0.0045893 -0.0204295 0.0624709
-0.00454609 -0.0205639 0.0618944
-0.00450278 -0.0206986 0.0613168
-0.0035461 -0.0171844 0.0482803
-0.00350037 -0.0173199 0.0476699
-0.00345453 -0.0174557 0.0470581
-0.00355504 -0.0193333 0.0484916
-0.00350946 -0.0194706 0.0478832
-0.00346377 -0.0196082 0.0472736
-0.00341799 -0.0197462 0.0466627
-0.00351849 -0.0216082 0.0480953
-0.00347295 -0.0217476 0.0474878
-0.00342733 -0.0218873 0.046879
-0.0033816 -0.0220273 0.0462689
-0.00333578 -0.0221676 0.0456576
-0.00328987 -0.0223082 0.045045
-0.00324386 -0.0224491 0.0444311
-0.00273134 -0.0240183 0.0375932
-0.00268416 -0.0241628 0.0369636
-0.00263688 -0.0243075 0.0363328
-0.0025895 -0.0244526 0.0357006
-0.00254202 -0.024598 0.0350671
-0.00249443 -0.0247437 0.0344323
-0.00244675 -0.0248897 0.0337961
-0.00239897 -0.025036 0.0331585
-0.00235108 -0.0251826 0.0325196
-0.00230309 -0.0253295 0.0318793
-0.002255 -0.0254768 0.0312377
-0.00220681 -0.0256244 0.0305947
-0.00215851 -0.0257722 0.0299503
-0.000524647 -0.0143057 0.007455
-0.000471629 -0.0144494 0.00674685
-0.000418492 -0.0145935 0.0060371
-0.000365234 -0.0147378 0.00532574
-0.000311855 -0.0148825 0.00461276
-0.000438623 -0.016937 0.00640737
-0.000385565 -0.0170835 0.00569879
-0.000332388 -0.0172304 0.00498862
-0.00027909 -0.0173776 0.00427684
-0.000225671 -0.0175251 0.00356345
-0.000352784 -0.0195627 0.00536198
-0.000299687 -0.019712 0.00465299
-0.000246469 -0.0198617 0.0039424
-0.000193132 -0.0200117 0.00323021
-0.000139674 -0.0201621 0.0025164
-8.60944e-05 -0.0203128 0.00180098
-0.000213992 -0.0223348 0.00360944
-0.000160736 -0.0224873 0.00289844
-0.000107359 -0.0226401 0.00218583
-0.00457354 -0.019694 0.0659058
-0.004529 -0.0198262 0.0653362
-0.00448437 -0.0199587 0.0647654
-0.00443965 -0.0200914 0.0641935
-0.00439484 -0.0202244 0.0636205
-0.00434994 -0.0203577 0.0630463
-0.00430495 -0.0204913 0.0624709
-0.00425987 -0.0206251 0.0618944
-0.00330695 -0.017232 0.0482803
-0.00325934 -0.0173669 0.0476699
-0.00321162 -0.017502 0.0470581
-0.00328603 -0.0193808 0.0484916
-0.00323854 -0.0195175 0.0478832
-0.00319094 -0.0196545 0.0472736
-0.00314325 -0.0197917 0.0466627
-0.0031704 -0.0217938 0.0474878
-0.00307516 -0.0220722 0.0462689
-0.0030274 -0.0222118 0.0456576
-0.00297954 -0.0223517 0.045045
-0.00264168 -0.0233395 0.0407209
-0.00259301 -0.0234818 0.040098
-0.00254424 -0.0236244 0.0394737
-0.00249536 -0.0237673 0.0388482
-0.00244638 -0.0239104 0.0382213
-0.0023973 -0.0240539 0.0375932
-0.00234812 -0.0241977 0.0369636
-0.00229883 -0.0243418 0.0363328
-0.00224943 -0.0244862 0.0357006
-0.00219994 -0.0246309 0.0350671
-0.00215033 -0.024776 0.0344323
-0.00210063 -0.0249213 0.0337961
-0.00205081 -0.0250669 0.0331585
-0.00200089 -0.0252129 0.0325196
-0.00195087 -0.0253591 0.0318793
-0.00190073 -0.0255057 0.0312377
-0.00185049 -0.0256525 0.0305947
-0.00180015 -0.0257997 0.0299503
-0.000325792 -0.0143116 0.007455
-0.000270782 -0.0144546 0.00674685
-0.000215648 -0.0145979 0.0060371
-0.000160389 -0.0147415 0.00532574
-0.000105004 -0.0148854 0.00461276
-0.000203209 -0.0169415 0.00640737
-0.00014812 -0.0170873 0.00569879
-9.2907e-05 -0.0172334 0.00498862
-3.75687e-05 -0.0173798 0.00427684
1.7895e-05 -0.0175266 0.00356345
-8.08901e-05 -0.0195657 0.00536198
-2.57225e-05 -0.0197143 0.00465299
2.95696e-05 -0.0198632 0.0039424
8.49867e-05 -0.0200125 0.00323021
0.000140529 -0.0201621 0.0025164
0.000196197 -0.020312 0.00180098
9.64123e-05 -0.0223356 0.00360944
0.000151783 -0.0224874 0.00289844
0.000207278 -0.0226394 0.00218583
-0.00433794 -0.0197472 0.0659058
-0.00429182 -0.0198789 0.0653362
-0.00424561 -0.0200108 0.0647654
-0.00419931 -0.020143 0.0641935
-0.00415291 -0.0202755 0.0636205
-0.00410642 -0.0204083 0.0630463
-0.00405984 -0.0205413 0.0624709
-0.00401316 -0.0206745 0.0618944
-0.00314997 -0.0171363 0.0488895
-0.00310085 -0.0172703 0.0482803
-0.00305162 -0.0174046 0.0476699
-0.0030023 -0.0175391 0.0470581
-0.00305426 -0.0194187 0.0484916
-0.00300513 -0.0195548 0.0478832
-0.00295591 -0.0196912 0.0472736
-0.00290658 -0.0198279 0.0466627
-0.00285715 -0.0199649 0.0460506
-0.0029098 -0.0218301 0.0474878
-0.00286058 -0.0219686 0.046879
-0.00281125 -0.0221073 0.0462689
-0.00276182 -0.0222464 0.0456576
-0.00271229 -0.0223857 0.045045
-0.00236266 -0.0233694 0.0407209
-0.00231229 -0.0235111 0.040098
-0.00210976 -0.0240809 0.0375932
-0.00205886 -0.0242241 0.0369636
-0.00200786 -0.0243676 0.0363328
-0.00195674 -0.0245114 0.0357006
-0.00190552 -0.0246555 0.0350671
-0.00185419 -0.0247999 0.0344323
-0.00180275 -0.0249446 0.0337961
-0.0017512 -0.0250896 0.0331585
-0.00169954 -0.025235 0.0325196
-0.00164777 -0.0253806 0.0318793
-0.00159589 -0.0255266 0.0312377
-0.0015439 -0.0256728 0.0305947
-0.000154791 -0.0143145 0.007455
-9.80767e-05 -0.0144568 0.00674685
-4.12345e-05 -0.0145994 0.0060371
1.57364e-05 -0.0147423 0.00532574
7.28366e-05 -0.0148856 0.00461276
-7.9812e-07 -0.0169427 0.00640737
5.60285e-05 -0.0170878 0.00569879
0.000112984 -0.0172332 0.00498862
0.000170068 -0.017379 0.00427684
0.000227281 -0.0175251 0.00356345
0.000152863 -0.0195653 0.00536198
0.000209802 -0.0197132 0.00465299
0.00026687 -0.0198614 0.0039424
0.000324066 -0.02001 0.00323021
0.000381392 -0.0201589 0.0025164
0.000438847 -0.0203082 0.00180098
0.000363245 -0.0223329 0.00360944
0.000420424 -0.0224839 0.00289844
-0.0040821 -0.0198017 0.0659058
-0.00403428 -0.0199327 0.0653362
-0.00398637 -0.0200641 0.0647654
-0.00393836 -0.0201957 0.0641935
-0.00389025 -0.0203275 0.0636205
-0.00384205 -0.0204597 0.0630463
-0.00379375 -0.0205921 0.0624709
-0.00292801 -0.0171756 0.0488895
-0.00287716 -0.0173089 0.0482803
-0.0028262 -0.0174426 0.0476699
-0.00277514 -0.0175765 0.0470581
-0.00270091 -0.0197278 0.0472736
-0.00252501 -0.0221419 0.0462689
-0.00247378 -0.0222803 0.0456576
-0.00242245 -0.022419 0.045045
-0.00211221 -0.0232572 0.0413425
-0.00179805 -0.0241061 0.0375932
-0.00158638 -0.0246781 0.0350671
-0.00153319 -0.0248218 0.0344323
-0.00147988 -0.0249658 0.0337961
-0.00142646 -0.0251102 0.0331585
-0.00137292 -0.0252548 0.0325196
-0.00131927 -0.0253998 0.0318793
3.0413e-05 -0.0143153 0.007455
8.89631e-05 -0.0144568 0.00674685
0.000147646 -0.0145987 0.0060371
0.000206461 -0.0147409 0.00532574
0.00026541 -0.0148834 0.00461276
0.000218395 -0.0169413 0.00640737
0.000277094 -0.0170856 0.00569879
0.000335926 -0.0172303 0.00498862
0.000394891 -0.0173754 0.00427684
0.00045399 -0.0175207 0.00356345
0.000405972 -0.0195616 0.00536198
0.00046482 -0.0197088 0.00465299
0.0005238 -0.0198563 0.0039424
0.000582914 -0.0200041 0.00323021
0.000642162 -0.0201523 0.0025164
0.000701544 -0.0203008 0.00180098
0.000652142 -0.0223263 0.00360944
0.000711271 -0.0224766 0.00289844
0.000770533 -0.0226273 0.00218583
0.00141048 -0.0369211 0.00164203
-0.00386217 -0.0197251 0.0664742
-0.00381267 -0.0198553 0.0659058
-0.00376308 -0.0199857 0.0653362
-0.00371339 -0.0201164 0.0647654
-0.0036636 -0.0202473 0.0641935
-0.0036137 -0.0203785 0.0636205
-0.00356371 -0.02051 0.0630463
-0.00274693 -0.0170814 0.0494974
-0.00269438 -0.0172138 0.0488895
-0.00264172 -0.0173464 0.0482803
-0.00258895 -0.0174794 0.0476699
-0.00253607 -0.0176126 0.0470581
-0.00253816 -0.0194929 0.0484916
-0.00248544 -0.0196276 0.0478832
-0.00243262 -0.0197627 0.0472736
-0.00232664 -0.0200336 0.0460506
-0.00217083 -0.0223118 0.0456576
-0.00211762 -0.0224498 0.045045
-0.00157936 -0.0238456 0.0388482
-0.00152491 -0.0239868 0.0382213
-0.00147035 -0.0241283 0.0375932
-0.00141567 -0.0242701 0.0369636
-0.00136087 -0.0244122 0.0363328
-0.00130596 -0.0245546 0.0357006
-0.00125093 -0.0246973 0.0350671
-0.00102966 -0.0252712 0.0325196
-0.000974041 -0.0254154 0.0318793
-0.000918309 -0.0255599 0.0312377
0.000224913 -0.0143135 0.007455
0.000285381 -0.0144543 0.00674685
0.000345986 -0.0145954 0.0060371
0.000406728 -0.0147367 0.00532574
0.000388038 -0.0167935 0.00711434
0.000448557 -0.0169367 0.00640737
0.000509212 -0.0170803 0.00569879
0.000570005 -0.0172242 0.00498862
0.000630935 -0.0173684 0.00427684
0.000692003 -0.0175129 0.00356345
0.00067172 -0.0195543 0.00536198
0.000732562 -0.0197007 0.00465299
0.000793541 -0.0198474 0.0039424
0.000854658 -0.0199944 0.00323021
0.000915914 -0.0201417 0.0025164
0.000977308 -0.0202894 0.00180098
0.001912 -0.0368985 0.00164203
-0.00368551 -0.019639 0.0670416
-0.00363462 -0.0197683 0.0664742
-0.00358363 -0.0198979 0.0659058
-0.00353254 -0.0200277 0.0653362
-0.00348135 -0.0201578 0.0647654
-0.00343005 -0.0202882 0.0641935
-0.00337865 -0.0204188 0.0636205
-0.00332714 -0.0205497 0.0630463
-0.00254992 -0.0171119 0.0494974
-0.00249585 -0.0172437 0.0488895
-0.00244166 -0.0173757 0.0482803
-0.00238736 -0.017508 0.0476699
-0.00233295 -0.0176407 0.0470581
-0.00231338 -0.0195208 0.0484916
-0.00225911 -0.019655 0.0478832
-0.00220474 -0.0197894 0.0472736
-0.00113592 -0.0242848 0.0369636
-0.00107949 -0.0244263 0.0363328
-0.000909483 -0.0248525 0.0344323
-0.000852575 -0.0249951 0.0337961
-0.000795545 -0.0251381 0.0331585
-0.000738395 -0.0252813 0.0325196
0.000389829 -0.01431 0.007455
0.000451915 -0.01445 0.00674685
0.000514141 -0.0145904 0.0060371
0.000576509 -0.0147311 0.00532574
0.000581519 -0.0167879 0.00711434
0.000643685 -0.0169305 0.00640737
0.00070599 -0.0170733 0.00569879
0.000768437 -0.0172165 0.00498862
0.000831024 -0.01736 0.00427684
0.000893754 -0.0175038 0.00356345
0.000896995 -0.0195453 0.00536198
0.000959519 -0.0196909 0.00465299
0.00102218 -0.0198369 0.0039424
0.00108499 -0.0199832 0.00323021
0.00114794 -0.0201298 0.0025164
0.00121103 -0.0202768 0.00180098
0.00171684 -0.0275101 0.00152904
0.00227387 -0.0367114 0.00234438
0.00233705 -0.036874 0.00164203
-0.00356279 -0.0196617 0.0670416
-0.00351109 -0.0197907 0.0664742
-0.00345929 -0.0199199 0.0659058
-0.00340739 -0.0200494 0.0653362
-0.00335538 -0.0201792 0.0647654
-0.00330327 -0.0203092 0.0641935
-0.00325106 -0.0204395 0.0636205
-0.00249778 -0.0169963 0.050104
-0.002443 -0.0171275 0.0494974
-0.0023881 -0.0172589 0.0488895
-0.00233309 -0.0173906 0.0482803
-0.00227797 -0.0175226 0.0476699
-0.00222273 -0.0176549 0.0470581
-0.00216738 -0.0177874 0.0464452
-0.00197032 -0.0200718 0.0460506
-0.000926911 -0.0244326 0.0363328
-0.000869479 -0.024574 0.0357006
-0.000811925 -0.0247157 0.0350671
-0.000754249 -0.0248577 0.0344323
-0.000696451 -0.025 0.0337961
-0.00063853 -0.0251426 0.0331585
-0.000580486 -0.0252855 0.0325196
0.000416377 -0.0141679 0.00816156
0.000479194 -0.0143073 0.007455
0.000542154 -0.0144469 0.00674685
0.000605256 -0.0145869 0.0060371
0.0006685 -0.0147272 0.00532574
0.000731888 -0.0148678 0.00461276
0.000749411 -0.0169261 0.00640737
0.000812608 -0.0170686 0.00569879
0.000875947 -0.0172113 0.00498862
0.00093943 -0.0173544 0.00427684
0.00100306 -0.0174979 0.00356345
0.00101905 -0.0195393 0.00536198
0.00108248 -0.0196845 0.00465299
0.00114606 -0.0198301 0.0039424
0.00120978 -0.019976 0.00323021
0.00127364 -0.0201223 0.0025164
0.00133765 -0.0202688 0.00180098
0.00188862 -0.0274988 0.00152904
0.0025673 -0.0368587 0.00164203
-0.00321098 -0.0196033 0.0676078
-0.00315674 -0.0197309 0.0670416
-0.0031024 -0.0198588 0.0664742
-0.00304795 -0.019987 0.0659058
-0.00299339 -0.0201154 0.0653362
-0.00293872 -0.0202441 0.0647654
-0.00288394 -0.020373 0.0641935
-0.00282905 -0.0205022 0.0636205
-0.0021469 -0.0170442 0.050104
-0.00208943 -0.0171742 0.0494974
-0.00203184 -0.0173045 0.0488895
-0.00197413 -0.017435 0.0482803
-0.00191629 -0.0175658 0.0476699
-0.00185834 -0.0176969 0.0470581
-0.00180027 -0.0178283 0.0464452
-0.00173043 -0.0197085 0.0478832
-0.00167246 -0.0198415 0.0472736
-0.00161437 -0.0199747 0.0466627
-0.00155616 -0.0201081 0.0460506
-0.0002417 -0.0248679 0.0344323
-0.000121787 -0.0233971 0.0309663
0.000708332 -0.0141564 0.00816156
0.000774008 -0.0142944 0.007455
0.000839832 -0.0144327 0.00674685
0.000905806 -0.0145713 0.0060371
0.000971929 -0.0147103 0.00532574
0.00103218 -0.0167663 0.00711434
0.00109815 -0.0169071 0.00640737
0.00116427 -0.0170482 0.00569879
0.00123054 -0.0171896 0.00498862
0.00129696 -0.0173314 0.00427684
0.00136353 -0.0174735 0.00356345
0.00142159 -0.0195141 0.00536198
0.00148801 -0.0196581 0.00465299
0.00155457 -0.0198023 0.0039424
0.00162128 -0.0199469 0.00323021
0.00168815 -0.0200917 0.0025164
0.00175516 -0.020237 0.00180098
0.00245505 -0.0274541 0.00152904
-0.00300492 -0.0196359 0.0676078
-0.00294935 -0.019763 0.0670416
-0.00289366 -0.0198903 0.0664742
-0.00283787 -0.0200179 0.0659058
-0.00278196 -0.0201457 0.0653362
-0.00272594 -0.0202738 0.0647654
-0.00266981 -0.0204022 0.0641935
-0.00208509 -0.0168078 0.0513135
-0.00202649 -0.0169367 0.0507094
-0.00196778 -0.0170658 0.050104
-0.00190895 -0.0171952 0.0494974
-0.00184999 -0.0173249 0.0488895
-0.00179091 -0.0174548 0.0482803
-0.0017317 -0.017585 0.0476699
-0.00167238 -0.0177155 0.0470581
-0.00158259 -0.0195936 0.0484916
-0.00152335 -0.0197256 0.0478832
-0.00146399 -0.0198579 0.0472736
-0.0014045 -0.0199905 0.0466627
0.000856969 -0.0141481 0.00816156
0.000924091 -0.0142855 0.007455
0.000991365 -0.0144231 0.00674685
0.00105879 -0.014561 0.0060371
0.00112637 -0.0146993 0.00532574
0.00120821 -0.0167545 0.00711434
0.00127565 -0.0168946 0.00640737
0.00134325 -0.017035 0.00569879
0.001411 -0.0171758 0.00498862
0.00147891 -0.0173168 0.00427684
0.00154697 -0.0174582 0.00356345
0.00161518 -0.0175999 0.00284844
0.00169438 -0.0196413 0.00465299
0.00176246 -0.0197849 0.0039424
0.00183068 -0.0199287 0.00323021
0.00189907 -0.0200729 0.0025164
0.0019676 -0.0202174 0.00180098
-0.00301568 -0.0196343 0.0676078
-0.00296017 -0.0197614 0.0670416
-0.00290456 -0.0198887 0.0664742
-0.00284883 -0.0200163 0.0659058
-0.002793 -0.0201442 0.0653362
-0.00273705 -0.0202723 0.0647654
-0.00268099 -0.0204007 0.0641935
-0.00212672 -0.0150457 0.049289
-0.00206787 -0.0151736 0.048679
-0.00197713 -0.0170647 0.050104
-0.00191836 -0.0171942 0.0494974
-0.00185948 -0.0173238 0.0488895
-0.00180047 -0.0174538 0.0482803
-0.00174134 -0.0175841 0.0476699
-0.00168208 -0.0177146 0.0470581
-0.0016227 -0.0178453 0.0464452
-0.00153415 -0.0197248 0.0478832
-7.6354e-05 -0.0229787 0.032894
-1.39929e-05 -0.0231179 0.0322528
4.85014e-05 -0.0232573 0.0316103
0.000849218 -0.0141486 0.00816156
0.000916265 -0.014286 0.007455
0.000983464 -0.0144236 0.00674685
0.00105081 -0.0145616 0.0060371
0.00111832 -0.0146999 0.00532574
0.00119903 -0.0167551 0.00711434
0.0012664 -0.0168953 0.00640737
0.00133392 -0.0170358 0.00569879
0.00140159 -0.0171765 0.00498862
0.00146942 -0.0173176 0.00427684
0.0015374 -0.017459 0.00356345
0.00160554 -0.0176008 0.00284844
0.00168362 -0.0196423 0.00465299
0.00175162 -0.0197858 0.0039424
0.00181977 -0.0199297 0.00323021
0.00188807 -0.0200739 0.0025164
0.00272823 -0.0274283 0.00152904
-0.00250591 -0.0197058 0.0676078
-0.00244713 -0.0198314 0.0670416
-0.00238824 -0.0199573 0.0664742
-0.00232922 -0.0200834 0.0659058
-0.00227009 -0.0202098 0.0653362
-0.00221084 -0.0203364 0.0647654
-0.00179816 -0.0149698 0.0498977
-0.00173615 -0.0150958 0.049289
-0.00167401 -0.0152221 0.048679
-0.00161173 -0.0153486 0.0480677
-0.00147219 -0.0172381 0.0494974
-0.00140997 -0.0173662 0.0488895
-0.00134761 -0.0174946 0.0482803
-0.00128512 -0.0176233 0.0476699
-0.00122251 -0.0177522 0.0470581
-0.00115976 -0.0178814 0.0464452
-0.00102254 -0.0197579 0.0478832
-0.00095984 -0.0198887 0.0472736
-0.000897011 -0.0200197 0.0466627
-0.000834052 -0.020151 0.0460506
0.00121555 -0.0141218 0.00816156
0.00128613 -0.0142574 0.007455
0.00135687 -0.0143933 0.00674685
0.00142777 -0.0145295 0.0060371
0.00149884 -0.014666 0.00532574
0.00163278 -0.0167185 0.00711434
0.00170376 -0.0168568 0.00640737
0.00177489 -0.0169955 0.00569879
0.00184619 -0.0171344 0.00498862
0.00191765 -0.0172737 0.00427684
0.00198928 -0.0174133 0.00356345
0.00206106 -0.0175533 0.00284844
0.00219202 -0.019592 0.00465299
0.00226371 -0.0197338 0.0039424
0.00233557 -0.0198759 0.00323021
0.00240758 -0.0200183 0.0025164
0.00370557 -0.0296182 0.00191184
0.00430841 -0.0342693 0.00196636
-0.00235359 -0.0196069 0.0681728
-0.00229359 -0.0197317 0.0676078
-0.00223346 -0.0198566 0.0670416
-0.00217321 -0.0199819 0.0664742
-0.00211285 -0.0201073 0.0659058
-0.00205236 -0.0202331 0.0653362
-0.00199175 -0.0203591 0.0647654
-0.00163688 -0.0149882 0.0498977
-0.00157351 -0.0151136 0.049289
-0.00151001 -0.0152392 0.048679
-0.00144638 -0.0153651 0.0480677
-0.0012865 -0.0172529 0.0494974
-0.0012229 -0.0173804 0.0488895
-0.00115916 -0.0175081 0.0482803
-0.00109529 -0.0176361 0.0476699
-0.000984274 -0.0186391 0.0480816
-0.00087371 -0.019638 0.0484916
-0.00080974 -0.0197678 0.0478832
-0.000745638 -0.0198979 0.0472736
-0.000617033 -0.0201588 0.0460506
-0.000552529 -0.0202897 0.0454371
0.000498144 -0.0224217 0.0354452
0.000564996 -0.0225573 0.0348095
0.000631991 -0.0226933 0.0341723
0.000699128 -0.0228295 0.0335339
0.00136753 -0.0141079 0.00816156
0.00143957 -0.0142427 0.007455
0.00151177 -0.0143778 0.00674685
0.00158413 -0.0145133 0.0060371
0.00169867 -0.015609 0.00657692
0.0018127 -0.0166999 0.00711434
0.00188516 -0.0168375 0.00640737
0.00195779 -0.0169754 0.00569879
0.00203058 -0.0171136 0.00498862
0.00210353 -0.0172521 0.00427684
0.00217665 -0.0173909 0.00356345
0.00224994 -0.0175301 0.00284844
0.00240284 -0.0195673 0.00465299
0.00247606 -0.0197083 0.0039424
0.00254944 -0.0198496 0.00323021
0.00373229 -0.0273098 0.00152904
0.00402426 -0.0295766 0.00191184
0.00467715 -0.0342209 0.00196636
-0.00207697 -0.0196382 0.0681728
-0.00201522 -0.019762 0.0676078
-0.00195333 -0.0198861 0.0670416
-0.00189133 -0.0200105 0.0664742
-0.0018292 -0.0201351 0.0659058
-0.00176694 -0.02026 0.0653362
-0.00149043 -0.0148856 0.0505052
-0.00142544 -0.0150098 0.0498977
-0.00136031 -0.0151343 0.049289
-0.00129504 -0.015259 0.048679
-0.00116885 -0.0162662 0.049089
-0.00104317 -0.0172694 0.0494974
-0.000977778 -0.0173959 0.0488895
-0.000912248 -0.0175227 0.0482803
-0.000846582 -0.0176498 0.0476699
-0.000780778 -0.0177771 0.0470581
-0.0005968 -0.0196484 0.0484916
-0.000531007 -0.0197772 0.0478832
-0.000266465 -0.0202955 0.0454371
0.000608755 -0.02201 0.0373445
0.000677077 -0.0221439 0.0367127
0.000745544 -0.022278 0.0360797
0.000814157 -0.0224124 0.0354452
0.000882915 -0.0225471 0.0348095
0.00115941 -0.0230888 0.0322528
0.00122891 -0.0232249 0.0316103
0.00156626 -0.0140873 0.00816156
0.00164019 -0.014221 0.007455
0.00171429 -0.0143551 0.00674685
0.00178856 -0.0144895 0.0060371
0.00197369 -0.0165365 0.00781973
0.00204792 -0.0166727 0.00711434
0.00212232 -0.0168092 0.00640737
0.00219688 -0.0169461 0.00569879
0.00227161 -0.0170832 0.00498862
0.00234651 -0.0172207 0.00427684
0.00242158 -0.0173585 0.00356345
0.00249683 -0.0174966 0.00284844
0.00282899 -0.0198117 0.00323021
0.00411688 -0.0272544 0.00152904
-0.00189317 -0.0195399 0.0687368
-0.00182999 -0.0196627 0.0681728
-0.00176668 -0.0197858 0.0676078
-0.00170324 -0.0199091 0.0670416
-0.00163968 -0.0200327 0.0664742
-0.00157599 -0.0201565 0.0659058
-0.00151217 -0.0202806 0.0653362
-0.00136963 -0.0147801 0.0511114
-0.00130322 -0.0149032 0.0505052
-0.00123667 -0.0150266 0.0498977
-0.00116999 -0.0151502 0.049289
-0.00110316 -0.0152741 0.048679
-0.00103619 -0.0153982 0.0480677
-0.000826041 -0.0172811 0.0494974
-0.000759062 -0.0174068 0.0488895
-0.000691943 -0.0175328 0.0482803
-0.000624685 -0.017659 0.0476699
-0.000557287 -0.0177855 0.0470581
-0.000489747 -0.0179123 0.0464452
0.000885338 -0.0220006 0.0373445
0.000955337 -0.0221336 0.0367127
0.00102548 -0.0222669 0.0360797
0.00109578 -0.0224004 0.0354452
0.00116623 -0.0225342 0.0348095
0.00144951 -0.0230724 0.0322528
0.00152071 -0.0232076 0.0316103
0.00166776 -0.0139339 0.00886652
0.00174319 -0.0140665 0.00816156
0.0018188 -0.0141993 0.007455
0.00189458 -0.0143324 0.00674685
0.00197053 -0.0144659 0.0060371
0.00218138 -0.0165103 0.00781973
0.00225731 -0.0166456 0.00711434
0.00233342 -0.0167812 0.00640737
0.00240969 -0.0169171 0.00569879
0.00248614 -0.0170533 0.00498862
0.00256277 -0.0171899 0.00427684
0.00263956 -0.0173267 0.00356345
0.00271653 -0.0174638 0.00284844
0.0029237 -0.0194963 0.00465299
0.00300065 -0.0196353 0.0039424
-0.00169242 -0.0195583 0.0687368
-0.00162798 -0.0196805 0.0681728
-0.00156341 -0.0198029 0.0676078
-0.00149871 -0.0199256 0.0670416
-0.00143388 -0.0200485 0.0664742
-0.00128531 -0.0146712 0.0517163
-0.00121778 -0.0147934 0.0511114
-0.00115011 -0.0149158 0.0505052
-0.0010823 -0.0150385 0.0498977
-0.00101435 -0.0151614 0.049289
-0.000946253 -0.0152846 0.048679
-0.000716663 -0.0171639 0.050104
-0.000648538 -0.0172887 0.0494974
-0.000580272 -0.0174137 0.0488895
-0.000511864 -0.017539 0.0482803
-0.000443313 -0.0176645 0.0476699
-0.000374619 -0.0177903 0.0470581
-0.000305781 -0.0179164 0.0464452
-0.0002368 -0.0180427 0.0458309
0.00111121 -0.0219904 0.0373445
0.00125409 -0.0222552 0.0360797
0.00154166 -0.0227881 0.0335339
0.00161393 -0.022922 0.032894
0.00168636 -0.0230563 0.0322528
0.00175895 -0.0231908 0.0316103
0.00181075 -0.0139161 0.00886652
0.00188755 -0.0140478 0.00816156
0.00196452 -0.0141799 0.007455
0.00204166 -0.0143122 0.00674685
0.00211897 -0.0144449 0.0060371
0.0023508 -0.0164871 0.00781973
0.00242812 -0.0166216 0.00711434
0.00250562 -0.0167564 0.00640737
0.00258329 -0.0168915 0.00569879
0.00266113 -0.0170269 0.00498862
0.00273915 -0.0171626 0.00427684
0.00281735 -0.0172987 0.00356345
0.00289572 -0.017435 0.00284844
0.00297428 -0.0175717 0.0021318
0.00719737 -0.0409359 0.0016976
-0.00147258 -0.0194599 0.0692996
-0.00140649 -0.0195809 0.0687368
-0.00134027 -0.0197022 0.0681728
-0.00127391 -0.0198236 0.0676078
-0.00120743 -0.0199453 0.0670416
-0.00114081 -0.0200673 0.0664742
-0.00107083 -0.0146884 0.0517163
-0.00100152 -0.0148096 0.0511114
-0.000932066 -0.014931 0.0505052
-0.000862469 -0.0150527 0.0498977
-0.000792727 -0.0151746 0.049289
-0.00072284 -0.0152968 0.048679
-0.000465816 -0.0171726 0.050104
-0.000395876 -0.0172963 0.0494974
-0.000325791 -0.0174203 0.0488895
-0.00025556 -0.0175446 0.0482803
-0.000185182 -0.0176691 0.0476699
6.8826e-05 -0.0195308 0.0490987
0.000139252 -0.0196569 0.0484916
0.00143238 -0.0219718 0.0373445
0.00150567 -0.022103 0.0367127
0.00157911 -0.0222345 0.0360797
0.00172646 -0.0224982 0.0348095
0.00180037 -0.0226306 0.0341723
0.00187443 -0.0227631 0.0335339
0.00194866 -0.022896 0.032894
0.00202304 -0.0230292 0.0322528
0.00209759 -0.0231626 0.0316103
0.00217229 -0.0232963 0.0309663
0.00224715 -0.0234304 0.030321
0.00201388 -0.0138881 0.00886652
0.00209259 -0.0140187 0.00816156
0.00217148 -0.0141497 0.007455
0.00225055 -0.0142809 0.00674685
0.00251234 -0.0163179 0.00852353
0.00259143 -0.016451 0.00781973
0.00267071 -0.0165843 0.00711434
0.00275017 -0.016718 0.00640737
0.0028298 -0.016852 0.00569879
0.00290962 -0.0169862 0.00498862
0.00298961 -0.0171208 0.00427684
0.00306979 -0.0172557 0.00356345
0.00315015 -0.0173909 0.00284844
-0.00124392 -0.0194759 0.0692996
-0.00117642 -0.0195961 0.0687368
-0.00110878 -0.0197165 0.0681728
-0.001041 -0.0198372 0.0676078
-0.000973091 -0.0199581 0.0670416
-0.000905044 -0.0200793 0.0664742
-0.000898241 -0.0147 0.0517163
-0.000827514 -0.0148203 0.0511114
-0.00075664 -0.0149409 0.0505052
-0.000685619 -0.0150618 0.0498977
-0.00061445 -0.0151829 0.049289
-0.000543133 -0.0153042 0.048679
-0.000264096 -0.0171768 0.050104
-0.000192708 -0.0172998 0.0494974
-0.000121171 -0.0174229 0.0488895
-4.94848e-05 -0.0175464 0.0482803
0.000226454 -0.0194037 0.0497045
0.000298207 -0.0195287 0.0490987
0.000166471 -0.0179182 0.0464452
0.00109742 -0.0209207 0.0423507
0.00191528 -0.0223453 0.0354452
0.00199058 -0.0224764 0.0348095
0.00206603 -0.0226078 0.0341723
0.00214165 -0.0227396 0.0335339
0.00221743 -0.0228715 0.032894
0.00229338 -0.0230038 0.0322528
0.00236948 -0.0231364 0.0316103
0.00217685 -0.0138635 0.00886652
0.00225709 -0.0139932 0.00816156
0.00233751 -0.0141232 0.007455
0.00241812 -0.0142534 0.00674685
0.00270381 -0.0162873 0.00852353
0.00278447 -0.0164194 0.00781973
0.00286531 -0.0165518 0.00711434
0.00294633 -0.0166845 0.00640737
0.00302753 -0.0168176 0.00569879
0.00310891 -0.0169509 0.00498862
0.00319049 -0.0170845 0.00427684
0.00327224 -0.0172184 0.00356345
0.00335418 -0.0173527 0.00284844
0.00827365 -0.0407321 0.0016976
-0.00108102 -0.0194856 0.0692996
-0.00101251 -0.0196052 0.0687368
-0.000943869 -0.0197251 0.0681728
-0.000875087 -0.0198452 0.0676078
-0.000806168 -0.0199656 0.0670416
-0.00073711 -0.0200862 0.0664742
-0.00084687 -0.0145875 0.05232
-0.000775288 -0.014707 0.0517163
-0.000703558 -0.0148267 0.0511114
-0.000631678 -0.0149467 0.0505052
-0.000559649 -0.015067 0.0498977
-0.00048747 -0.0151875 0.049289
-0.00041514 -0.0153082 0.048679
-0.000120455 -0.0171785 0.050104
-4.8041e-05 -0.0173008 0.0494974
2.45235e-05 -0.0174233 0.0488895
9.72391e-05 -0.0175462 0.0482803
0.000170106 -0.0176692 0.0476699
0.000243125 -0.0177926 0.0470581
0.00187385 -0.0219386 0.0373445
0.00194976 -0.0220683 0.0367127
0.00202583 -0.0221982 0.0360797
0.00210206 -0.0223285 0.0354452
0.00217845 -0.022459 0.0348095
0.00225501 -0.0225898 0.0341723
0.00256286 -0.0231158 0.0316103
0.00264024 -0.023248 0.0309663
0.0022927 -0.0138448 0.00886652
0.00237402 -0.0139738 0.00816156
0.00245553 -0.0141031 0.007455
0.00253722 -0.0142327 0.00674685
0.00283991 -0.0162641 0.00852353
0.00292167 -0.0163955 0.00781973
0.00300361 -0.0165273 0.00711434
0.00308574 -0.0166593 0.00640737
0.00316805 -0.0167917 0.00569879
0.00325055 -0.0169243 0.00498862
0.00333323 -0.0170572 0.00427684
0.00341611 -0.0171905 0.00356345
0.00349917 -0.017324 0.00284844
-0.00106612 -0.019371 0.0698613
-0.000997234 -0.0194901 0.0692996
-0.000928212 -0.0196094 0.0687368
-0.000859052 -0.019729 0.0681728
-0.000789754 -0.0198488 0.0676078
-0.000720318 -0.0199689 0.0670416
-0.000856088 -0.0144721 0.0529224
-0.000784143 -0.014591 0.05232
-0.000712048 -0.0147102 0.0517163
-0.000639803 -0.0148296 0.0511114
-0.000567409 -0.0149493 0.0505052
-0.000494863 -0.0150692 0.0498977
-0.000422167 -0.0151894 0.049289
-0.000349319 -0.0153099 0.048679
-4.65947e-05 -0.0171788 0.050104
2.63444e-05 -0.0173008 0.0494974
9.94352e-05 -0.0174231 0.0488895
0.000172678 -0.0175456 0.0482803
0.000246074 -0.0176684 0.0476699
0.000319623 -0.0177914 0.0470581
0.000393325 -0.0179147 0.0464452
0.002275 -0.0224494 0.0348095
0.00235211 -0.0225799 0.0341723
0.00242939 -0.0227106 0.0335339
0.00250684 -0.0228416 0.032894
0.00258445 -0.0229729 0.0322528
0.00266223 -0.0231045 0.0316103
0.00235221 -0.0138348 0.00886652
0.00243408 -0.0139635 0.00816156
0.00251614 -0.0140924 0.007455
0.00282768 -0.0161209 0.00922575
0.00290981 -0.0162517 0.00852353
0.00299214 -0.0163828 0.00781973
0.00307464 -0.0165142 0.00711434
0.00315734 -0.0166459 0.00640737
0.00324022 -0.0167779 0.00569879
0.00332328 -0.0169102 0.00498862
0.00340654 -0.0170427 0.00427684
0.00348999 -0.0171756 0.00356345
-0.000625155 -0.0193902 0.0698613
-0.000553579 -0.0195077 0.0692996
-0.00048186 -0.0196255 0.0687368
-0.000409997 -0.0197434 0.0681728
-0.000337992 -0.0198616 0.0676078
-0.000265842 -0.0199801 0.0670416
-0.000601107 -0.0143708 0.0535236
-0.000526629 -0.0144878 0.0529224
-0.000451996 -0.0146051 0.05232
-0.000377209 -0.0147226 0.0517163
-0.000302266 -0.0148403 0.0511114
-0.000227167 -0.0149584 0.0505052
-0.000151912 -0.0150766 0.0498977
-7.65001e-05 -0.0151951 0.049289
-9.30904e-07 -0.0153138 0.048679
0.000344233 -0.0171754 0.050104
0.000419929 -0.0172957 0.0494974
0.000495782 -0.0174163 0.0488895
0.000571793 -0.0175371 0.0482803
0.000913321 -0.0193835 0.0497045
0.000989453 -0.0195059 0.0490987
0.000800779 -0.0179011 0.0464452
0.000877427 -0.0180229 0.0458309
0.000954235 -0.018145 0.0452153
0.00246656 -0.0218799 0.0373445
0.00254595 -0.0220074 0.0367127
0.00262551 -0.0221353 0.0360797
0.00270523 -0.0222634 0.0354452
0.00278513 -0.0223918 0.0348095
0.00258175 -0.0136513 0.0095699
0.00266634 -0.0137778 0.00886652
0.00275112 -0.0139045 0.00816156
0.00283609 -0.0140316 0.007455
0.00292126 -0.0141589 0.00674685
0.00327878 -0.0161813 0.00852353
0.00336407 -0.0163105 0.00781973
0.00344954 -0.01644 0.00711434
0.00353521 -0.0165698 0.00640737
0.00362107 -0.0166998 0.00569879
0.00370713 -0.0168302 0.00498862
0.00379338 -0.0169608 0.00427684
0.00387982 -0.0170918 0.00356345
-0.000364593 -0.0193969 0.0698613
-0.000291444 -0.0195134 0.0692996
-0.000218149 -0.0196302 0.0687368
-0.000144709 -0.0197472 0.0681728
-7.11216e-05 -0.0198644 0.0676078
-0.000407982 -0.0143776 0.0535236
-0.000331939 -0.0144936 0.0529224
-0.000255737 -0.0146098 0.05232
-0.000179378 -0.0147263 0.0517163
-0.000102859 -0.0148431 0.0511114
-2.61821e-05 -0.0149601 0.0505052
5.06548e-05 -0.0150773 0.0498977
0.000420822 -0.0169314 0.0513135
0.000497808 -0.0170502 0.0507094
0.000574953 -0.0171693 0.050104
0.000652258 -0.0172885 0.0494974
0.000729724 -0.0174081 0.0488895
0.000807352 -0.0175279 0.0482803
0.000885141 -0.0176479 0.0476699
0.000963092 -0.0177682 0.0470581
0.00104121 -0.0178887 0.0464452
0.0030041 -0.0222251 0.0354452
0.00308571 -0.0223524 0.0348095
0.0031675 -0.02248 0.0341723
0.00324946 -0.0226079 0.0335339
0.00276492 -0.0136154 0.0095699
0.0028512 -0.0137407 0.00886652
0.00293768 -0.0138663 0.00816156
0.00302435 -0.0139922 0.007455
0.00311122 -0.0141184 0.00674685
0.00349588 -0.0161358 0.00852353
0.0035829 -0.0162638 0.00781973
0.0036701 -0.0163922 0.00711434
0.00375751 -0.0165208 0.00640737
0.00384511 -0.0166497 0.00569879
0.00393291 -0.0167789 0.00498862
0.0040209 -0.0169083 0.00427684
0.0041091 -0.0170381 0.00356345
0.00910279 -0.0358092 0.00164203
-0.000110527 -0.0194 0.0698613
-3.58588e-05 -0.0195155 0.0692996
3.89586e-05 -0.0196313 0.0687368
0.000113925 -0.0197474 0.0681728
0.000189041 -0.0198636 0.0676078
-0.000297046 -0.0142669 0.0541236
-0.00021965 -0.0143817 0.0535236
-0.000142093 -0.0144967 0.0529224
-6.43754e-05 -0.0146119 0.05232
1.35034e-05 -0.0147274 0.0517163
9.15439e-05 -0.0148431 0.0511114
0.000169747 -0.0149591 0.0505052
0.000248112 -0.0150753 0.0498977
0.000485075 -0.0160608 0.0503044
0.000721066 -0.0170422 0.0507094
0.000799763 -0.0171603 0.050104
0.000878624 -0.0172785 0.0494974
0.000957649 -0.017397 0.0488895
0.00134804 -0.0192324 0.0503091
0.00142723 -0.0193525 0.0497045
0.00150658 -0.0194728 0.0490987
0.00354527 -0.0225634 0.0335339
0.002943 -0.013578 0.0095699
0.00303092 -0.0137022 0.00886652
0.00311903 -0.0138266 0.00816156
0.00320734 -0.0139514 0.007455
0.00361843 -0.0159621 0.00922575
0.00370691 -0.0160887 0.00852353
0.00379559 -0.0162155 0.00781973
0.00388447 -0.0163427 0.00711434
0.00397355 -0.0164701 0.00640737
0.00406283 -0.0165979 0.00569879
0.00415232 -0.0167259 0.00498862
0.004242 -0.0168542 0.00427684
0.00433189 -0.0169828 0.00356345
9.74325e-05 -0.0192853 0.0704218
0.000173634 -0.0193995 0.0698613
0.000249987 -0.019514 0.0692996
0.000326492 -0.0196287 0.0687368
0.00040315 -0.0197436 0.0681728
0.000479961 -0.0198587 0.0676078
-0.000166954 -0.0141563 0.0547223
-8.80485e-05 -0.0142697 0.0541236
-8.97929e-06 -0.0143833 0.0535236
7.02536e-05 -0.0144972 0.0529224
0.000149651 -0.0146113 0.05232
0.000229213 -0.0147256 0.0517163
0.00030894 -0.0148402 0.0511114
0.000388833 -0.014955 0.0505052
0.000640107 -0.0159361 0.0509102
0.000890353 -0.0169132 0.0513135
0.000970604 -0.0170298 0.0507094
0.00105102 -0.0171467 0.050104
0.00113161 -0.0172638 0.0494974
0.00121236 -0.0173811 0.0488895
0.00162959 -0.0192106 0.0503091
0.00171053 -0.0193295 0.0497045
0.00179164 -0.0194486 0.0490987
0.00153705 -0.0178529 0.0464452
0.00294782 -0.0199028 0.0358249
0.00314156 -0.0135334 0.0095699
0.00323128 -0.0136563 0.00886652
0.00332121 -0.0137795 0.00816156
0.00376171 -0.0157823 0.00992639
0.00385183 -0.0159073 0.00922575
0.00394216 -0.0160326 0.00852353
0.00403269 -0.0161582 0.00781973
0.00412342 -0.016284 0.00711434
0.00421436 -0.0164102 0.00640737
0.0043055 -0.0165366 0.00569879
0.00439685 -0.0166633 0.00498862
0.00448841 -0.0167903 0.00427684
0.00458017 -0.0169176 0.00356345
0.00880523 -0.0310575 0.00158584
0.0100927 -0.0355429 0.00164203
0.0132014 -0.0464671 0.0021264
0.000319971 -0.0192829 0.0704218
0.000397485 -0.0193962 0.0698613
0.000475154 -0.0195098 0.0692996
0.000552978 -0.0196236 0.0687368
0.000630957 -0.0197376 0.0681728
0.000709091 -0.0198519 0.0676078
0.000278751 -0.0157581 0.0572867
-3.58506e-06 -0.0141573 0.0547223
7.66242e-05 -0.0142698 0.0541236
0.000156999 -0.0143825 0.0535236
0.000237541 -0.0144954 0.0529224
0.000318249 -0.0146086 0.05232
0.000399126 -0.014722 0.0517163
0.00048017 -0.0148357 0.0511114
0.000561382 -0.0149495 0.0505052
0.000642764 -0.0150637 0.0498977
0.000905449 -0.0160426 0.0503044
0.00116706 -0.0170175 0.0507094
0.00124882 -0.0171334 0.050104
0.00133075 -0.0172496 0.0494974
0.00176903 -0.0190729 0.0509124
0.00185117 -0.0191905 0.0503091
0.00193347 -0.0193085 0.0497045
0.00357939 -0.0152448 0.0127133
0.00329752 -0.0134963 0.0095699
0.00376108 -0.0154908 0.011323
0.00385223 -0.0156142 0.0106255
0.00394358 -0.0157379 0.00992639
0.00403514 -0.0158618 0.00922575
0.00412691 -0.0159861 0.00852353
0.00421888 -0.0161106 0.00781973
0.00431106 -0.0162354 0.00711434
0.00440345 -0.0163604 0.00640737
0.00449604 -0.0164858 0.00569879
0.00458885 -0.0166114 0.00498862
0.00468186 -0.0167374 0.00427684
0.00477509 -0.0168636 0.00356345
0.013137 -0.0442197 0.00175257
0.0136367 -0.0461573 0.0028184
0.0137368 -0.0463117 0.0021264
0.000588162 -0.0192766 0.0704218
0.000667245 -0.0193888 0.0698613
0.000746486 -0.0195013 0.0692996
0.000825885 -0.019614 0.0687368
0.000905443 -0.0197269 0.0681728
0.000111744 -0.0140449 0.0553197
0.000193341 -0.014156 0.0547223
0.000275107 -0.0142673 0.0541236
0.000357042 -0.0143789 0.0535236
0.000439147 -0.0144907 0.0529224
0.000521422 -0.0146028 0.05232
0.000603868 -0.014715 0.0517163
0.000686485 -0.0148275 0.0511114
0.000962528 -0.0158012 0.0515147
0.00123744 -0.0167708 0.0519164
0.00132046 -0.0168851 0.0513135
0.00140366 -0.0169996 0.0507094
0.00148702 -0.0171144 0.050104
0.00157056 -0.0172294 0.0494974
0.00203416 -0.0190464 0.0509124
0.00211793 -0.0191629 0.0503091
0.00220186 -0.0192797 0.0497045
0.00224517 -0.0181581 0.0445985
0.00233029 -0.0182753 0.0439803
0.00336585 -0.0197009 0.0364602
0.00345334 -0.0198214 0.0358249
0.00369886 -0.0150723 0.0134062
0.00379109 -0.0151936 0.0127133
0.00348493 -0.0134491 0.0095699
0.00397619 -0.015437 0.011323
0.00406905 -0.0155591 0.0106255
0.00416211 -0.0156815 0.00992639
0.00425539 -0.0158042 0.00922575
0.00434887 -0.0159271 0.00852353
0.00444257 -0.0160503 0.00781973
0.00453647 -0.0161738 0.00711434
0.00463059 -0.0162976 0.00640737
0.00472492 -0.0164217 0.00569879
0.00481947 -0.016546 0.00498862
0.00491422 -0.0166706 0.00427684
0.0050092 -0.0167955 0.00356345
0.00510438 -0.0169207 0.00284844
0.00519979 -0.0170462 0.0021318
0.00883715 -0.028511 0.00191184
0.0135474 -0.0437306 0.00314035
0.013649 -0.0438815 0.00244722
0.0137508 -0.0440327 0.00175257
0.000854495 -0.0192666 0.0704218
0.000935122 -0.0193777 0.0698613
0.00101591 -0.0194891 0.0692996
0.00109686 -0.0196007 0.0687368
0.000428409 -0.0147855 0.0568997
0.000305824 -0.014042 0.0553197
0.000388949 -0.014152 0.0547223
0.000472246 -0.0142622 0.0541236
0.000555715 -0.0143726 0.0535236
0.000639358 -0.0144833 0.0529224
0.000723173 -0.0145942 0.05232
0.000807163 -0.0147053 0.0517163
0.000891326 -0.0148166 0.0511114
0.0011808 -0.0157864 0.0515147
0.00146909 -0.0167521 0.0519164
0.00155368 -0.0168652 0.0513135
0.00163845 -0.0169786 0.0507094
0.00172339 -0.0170922 0.050104
0.00221199 -0.0189013 0.0515145
0.00229718 -0.0190165 0.0509124
0.00238254 -0.0191318 0.0503091
0.00246809 -0.0192474 0.0497045
0.0039955 -0.020131 0.0339108
0.00408541 -0.0202512 0.03327
0.00417551 -0.0203717 0.0326279
0.00390679 -0.0150197 0.0134062
0.0040007 -0.0151397 0.0127133
0.00409481 -0.01526 0.0120189
0.00418914 -0.0153806 0.011323
0.00428367 -0.0155014 0.0106255
0.00437842 -0.0156225 0.00992639
0.00447339 -0.0157439 0.00922575
0.00456856 -0.0158655 0.00852353
0.00466395 -0.0159874 0.00781973
0.00475955 -0.0161096 0.00711434
0.00485537 -0.0162321 0.00640737
0.00495141 -0.0163548 0.00569879
0.00504766 -0.0164778 0.00498862
0.00514413 -0.0166011 0.00427684
0.00524082 -0.0167247 0.00356345
0.00543486 -0.0169727 0.0021318
0.00853907 -0.0262076 0.00152904
0.0114803 -0.0351192 0.00164203
0.012927 -0.0395025 0.0016976
0.0134894 -0.0414548 0.00276943
0.0135927 -0.0416024 0.00207363
0.0142541 -0.0436887 0.00244722
0.000954654 -0.0191475 0.0709813
0.00103616 -0.0192577 0.0704218
0.00111784 -0.0193681 0.0698613
0.00119967 -0.0194787 0.0692996
0.00128167 -0.0195895 0.0687368
0.00136383 -0.0197005 0.0681728
0.000354258 -0.0139295 0.055916
0.000438243 -0.0140385 0.0553197
0.000522402 -0.0141477 0.0547223
0.000606734 -0.0142571 0.0541236
0.000691241 -0.0143667 0.0535236
0.000775923 -0.0144766 0.0529224
0.000860781 -0.0145867 0.05232
0.000945815 -0.014697 0.0517163
0.00103103 -0.0148076 0.0511114
0.00111641 -0.0149184 0.0505052
0.00141515 -0.0158861 0.0509102
0.00171267 -0.0168498 0.0513135
0.0017985 -0.0169624 0.0507094
0.00188451 -0.0170752 0.050104
0.00239015 -0.0188796 0.0515145
0.00247642 -0.018994 0.0509124
0.00256287 -0.0191085 0.0503091
0.0026495 -0.0192233 0.0497045
0.00310768 -0.0186793 0.0414948
0.00319643 -0.0187957 0.0408701
0.00328537 -0.0189123 0.0402441
0.0033745 -0.0190292 0.0396168
0.00346381 -0.0191464 0.0389881
0.00373289 -0.0194992 0.0370942
0.00382297 -0.0196174 0.0364602
0.00391323 -0.0197357 0.0358249
0.00400369 -0.0198544 0.0351882
0.00404827 -0.0149822 0.0134062
0.00370128 -0.0132463 0.0102717
0.00379667 -0.0133644 0.0095699
0.00389227 -0.0134828 0.00886652
0.00442968 -0.0154603 0.0106255
0.00452557 -0.0155805 0.00992639
0.00462167 -0.015701 0.00922575
0.00471799 -0.0158217 0.00852353
0.00481452 -0.0159427 0.00781973
0.00491127 -0.016064 0.00711434
0.00500824 -0.0161856 0.00640737
0.00510543 -0.0163074 0.00569879
0.00520284 -0.0164295 0.00498862
0.00530047 -0.0165519 0.00427684
0.00549639 -0.0167975 0.00284844
0.00559469 -0.0169207 0.0021318
0.00878585 -0.0261259 0.00152904
0.0103067 -0.030592 0.00158584
0.0132989 -0.0393788 0.0016976
0.0136946 -0.0405003 0.00153677
0.0139845 -0.0414724 0.00207363
0.00123285 -0.0191316 0.0709813
0.00131596 -0.0192406 0.0704218
0.00139922 -0.0193498 0.0698613
0.00148266 -0.0194592 0.0692996
0.00156626 -0.0195688 0.0687368
0.00165002 -0.0196786 0.0681728
0.00092183 -0.0155053 0.0584667
0.000556679 -0.0139229 0.055916
0.000642239 -0.0140306 0.0553197
0.000727976 -0.0141386 0.0547223
0.00081389 -0.0142468 0.0541236
0.000899982 -0.0143552 0.0535236
0.000986252 -0.0144638 0.0529224
0.0010727 -0.0145726 0.05232
0.00115933 -0.0146817 0.0517163
0.00124614 -0.014791 0.0511114
0.00178301 -0.0166012 0.0525181
0.00187011 -0.0167121 0.0519164
0.00195739 -0.0168232 0.0513135
0.00204485 -0.0169345 0.0507094
0.00257657 -0.0187301 0.0521153
0.00266431 -0.0188429 0.0515145
0.00275223 -0.018956 0.0509124
0.00284034 -0.0190692 0.0503091
0.00292862 -0.0191828 0.0497045
0.00383293 -0.0192101 0.0383582
0.00392432 -0.0193264 0.0377269
0.00419967 -0.0196768 0.0358249
0.00429184 -0.0197941 0.0351882
0.00438421 -0.0199116 0.0345502
0.00484902 -0.0205032 0.0313395
0.0042656 -0.0149218 0.0134062
0.00436236 -0.0150395 0.0127133
0.00445933 -0.0151575 0.0120189
0.00455652 -0.0152758 0.011323
0.00465392 -0.0153943 0.0106255
0.00475154 -0.0155131 0.00992639
0.00484939 -0.0156321 0.00922575
0.00494745 -0.0157515 0.00852353
0.00504573 -0.0158711 0.00781973
0.00514424 -0.0159909 0.00711434
0.00524296 -0.0161111 0.00640737
0.00534191 -0.0162315 0.00569879
0.00564011 -0.0165943 0.00356345
0.00573996 -0.0167158 0.00284844
0.00584003 -0.0168376 0.0021318
0.0137636 -0.0390381 0.00239608
0.0138699 -0.0391814 0.0016976
0.00144522 -0.0191167 0.0709813
0.00152953 -0.0192248 0.0704218
0.001614 -0.019333 0.0698613
0.00169865 -0.0194415 0.0692996
0.00178346 -0.0195502 0.0687368
0.0010076 -0.0153867 0.0590549
0.00109395 -0.0154941 0.0584667
0.000711248 -0.0139158 0.055916
0.000797999 -0.0140226 0.0553197
0.00088493 -0.0141296 0.0547223
0.00097204 -0.0142368 0.0541236
0.00105933 -0.0143443 0.0535236
0.0011468 -0.0144519 0.0529224
0.00123445 -0.0145598 0.05232
0.00132229 -0.0146679 0.0517163
0.0014103 -0.0147763 0.0511114
0.00196725 -0.0165804 0.0525181
0.00205557 -0.0166903 0.0519164
0.00214408 -0.0168004 0.0513135
0.00223277 -0.0169107 0.0507094
0.00278439 -0.0187003 0.0521153
0.00287338 -0.0188122 0.0515145
0.00296255 -0.0189242 0.0509124
0.00305191 -0.0190365 0.0503091
0.00314145 -0.0191491 0.0497045
0.00376914 -0.0188219 0.0402441
0.00386124 -0.0189365 0.0396168
0.00395352 -0.0190513 0.0389881
0.00404601 -0.0191663 0.0383582
0.00413869 -0.0192816 0.0377269
0.00423156 -0.0193971 0.0370942
0.00432463 -0.0195129 0.0364602
0.00451138 -0.0197452 0.0351882
0.00460504 -0.0198617 0.0345502
0.00469891 -0.0199785 0.0339108
0.00479298 -0.0200955 0.03327
0.00488725 -0.0202128 0.0326279
0.00498172 -0.0203303 0.0319844
0.0050764 -0.0204481 0.0313395
0.0043332 -0.0147571 0.0140975
0.00443104 -0.0148735 0.0134062
0.00452909 -0.0149901 0.0127133
0.00462737 -0.0151071 0.0120189
0.00472586 -0.0152242 0.011323
0.00482458 -0.0153417 0.0106255
0.00492351 -0.0154594 0.00992639
0.00502267 -0.0155773 0.00922575
0.00512205 -0.0156956 0.00852353
0.00522166 -0.015814 0.00781973
