0.0848347 0.10104 0.0501721
0.0848186 0.101022 0.0496648
0.0848024 0.101004 0.0491564
0.0847863 0.100986 0.0486469
0.08477 0.100968 0.0481361
0.0847538 0.100949 0.0476243
0.0847375 0.100931 0.0471112
0.0847212 0.100912 0.046597
0.0847048 0.100894 0.0460816
0.0846884 0.100875 0.045565
0.0837082 0.100592 0.0457795
0.0817875 0.100049 0.0467148
0.0808283 0.0997718 0.046923
0.0826976 0.100272 0.044964
0.0807872 0.0997327 0.0459047
0.0807665 0.0997131 0.0453938
0.0826415 0.100214 0.0434123
0.0835848 0.100459 0.0421444
0.0807043 0.099654 0.0438543
0.0825851 0.100156 0.0418498
0.0825662 0.100137 0.0413266
0.0825472 0.100117 0.0408022
0.0825282 0.100098 0.0402766
0.0825092 0.100078 0.0397498
0.0824901 0.100059 0.0392217
0.0805573 0.0995144 0.0402207
0.0834231 0.100285 0.0373837
0.083405 0.100266 0.0368485
0.0833868 0.100246 0.0363121
0.0833685 0.100227 0.0357745
0.0833502 0.100207 0.0352356
0.0833319 0.100187 0.0346954
0.0813674 0.0996352 0.0357443
0.0813469 0.0996149 0.0352085
0.0813264 0.0995947 0.0346715
0.0822773 0.09984 0.0333315
0.0822577 0.0998198 0.0327885
0.0822381 0.0997996 0.0322442
0.0822183 0.0997793 0.0316986
0.0821986 0.099759 0.0311518
0.0821788 0.0997387 0.0306037
0.0802124 0.099187 0.0316923
0.0801905 0.0991661 0.0311487
0.0801684 0.0991452 0.0306038
0.0801463 0.0991242 0.0300576
0.0801242 0.0991032 0.0295102
0.082059 0.0996156 0.0272876
0.0820389 0.0995949 0.0267303
0.0800575 0.0990399 0.0278601
0.0800351 0.0990186 0.0273075
0.0800127 0.0989974 0.0267536
0.0799903 0.0989761 0.0261983
0.0799678 0.0989547 0.0256418
0.0819171 0.0994698 0.0233587
0.0818966 0.0994487 0.022792
0.0818761 0.0994276 0.022224
0.0818555 0.0994065 0.0216546
0.0818349 0.0993853 0.0210839
0.0818142 0.0993641 0.0205118
0.0798087 0.0988037 0.0217087
0.0817727 0.0993214 0.0193634
0.0797628 0.0987601 0.0205729
0.0817311 0.0992786 0.0182095
0.0797166 0.0987162 0.0194317
0.0796935 0.0986943 0.018859
0.0796703 0.0986722 0.0182849
0.079647 0.0986501 0.0177095
0.0796237 0.098628 0.0171326
0.0796003 0.0986058 0.0165544
0.0795769 0.0985835 0.0159748
0.0795534 0.0985612 0.0153938
0.0795298 0.0985389 0.0148114
0.0795062 0.0985164 0.0142275
0.0794825 0.098494 0.0136423
0.0794588 0.0984714 0.0130556
0.0814551 0.0989951 0.0105708
0.0794112 0.0984262 0.0118779
0.0783898 0.098134 0.0122295
0.0783648 0.098111 0.0116411
0.0803489 0.0986306 0.00914069
0.0783145 0.0980649 0.0104601
0.0792911 0.0983122 0.00890861
0.0792669 0.0982892 0.00831037
0.0792427 0.0982662 0.00771066
0.0792184 0.0982431 0.00710948
0.0812368 0.0987707 0.00452686
0.0781622 0.0979253 0.00688217
0.0791451 0.0981735 0.00529703
0.0791205 0.0981502 0.00468989
0.0790959 0.0981269 0.00408125
0.0790712 0.0981034 0.0034711
0.0780335 0.0978074 0.00386012
0.0770035 0.0975135 0.00424624
0.0749074 0.0968831 0.00380698
0.0748779 0.0968584 0.00320331
0.0768399 0.0973684 0.000586823
0.346566 0.180493 0.0226885
0.347092 0.180628 0.0216828
0.34815 0.180899 0.0196585
0.348682 0.181036 0.0186398
0.349217 0.181173 0.0176168
0.349754 0.181311 0.0165894
0.124221 0.113988 0.0912836
0.0837843 0.101088 0.0734584
0.0837681 0.101071 0.0730054
0.0837519 0.101054 0.0725514
0.0837356 0.101037 0.0720965
0.0837193 0.10102 0.0716406
0.083703 0.101003 0.0711838
0.0836867 0.100986 0.0707259
0.0864098 0.101764 0.0685008
0.0863961 0.101747 0.068033
0.0863825 0.10173 0.0675641
0.0836209 0.100917 0.0688846
0.086355 0.101697 0.0666233
0.0835878 0.100882 0.067958
0.0835712 0.100865 0.0674931
0.0835546 0.100847 0.0670273
0.0835379 0.10083 0.0665604
0.0835212 0.100812 0.0660926
0.0835045 0.100794 0.0656237
0.0853264 0.101309 0.0639219
0.0853115 0.101292 0.0634455
0.0852965 0.101275 0.062968
0.0834371 0.100724 0.0637379
0.0852664 0.10124 0.0620098
0.0852514 0.101222 0.0615291
0.0852363 0.101205 0.0610473
0.0852211 0.101188 0.0605645
0.0852059 0.10117 0.0600806
0.0851907 0.101153 0.0595956
0.0851755 0.101135 0.0591096
0.0833007 0.10058 0.0599163
0.0832834 0.100562 0.0594339
0.0851296 0.101082 0.0576449
0.0851142 0.101064 0.0571545
0.0850988 0.101046 0.056663
0.0850833 0.101029 0.0561704
0.0850678 0.101011 0.0556767
0.0850523 0.100993 0.0551819
0.0850368 0.100975 0.054686
0.0850212 0.100957 0.054189
0.0840619 0.100667 0.0543702
0.0849899 0.100921 0.0531915
0.0849742 0.100903 0.0526911
0.0849585 0.100885 0.0521896
0.0849427 0.100866 0.0516869
0.0849269 0.100848 0.0511831
0.0849111 0.10083 0.0506782
0.0848952 0.100812 0.0501721
0.0848793 0.100793 0.0496648
0.0848634 0.100775 0.0491564
0.0848474 0.100756 0.0486469
0.0819933 0.0999221 0.0502565
0.0819742 0.0999029 0.049754
0.0828945 0.100154 0.0485438
0.0828764 0.100134 0.0480358
0.0828582 0.100115 0.0475268
0.08284 0.100096 0.0470166
0.0809437 0.0995379 0.0479367
0.0828034 0.100058 0.0459926
0.0837391 0.100312 0.0447469
0.0818204 0.0997478 0.0456925
0.0808624 0.099459 0.0459047
0.080842 0.0994392 0.0453938
0.0808215 0.0994193 0.0448818
0.0826927 0.0999415 0.0428927
0.0826741 0.099922 0.0423719
0.0826555 0.0999024 0.0418498
0.0826368 0.0998828 0.0413266
0.0826181 0.0998631 0.0408022
0.0825993 0.0998434 0.0402766
0.0825805 0.0998236 0.0397498
0.0825616 0.0998038 0.0392217
0.0825427 0.0997839 0.0386924
0.0825238 0.099764 0.0381619
0.0825048 0.0997441 0.0376302
0.0824858 0.0997241 0.0370972
0.0815043 0.099429 0.0373442
0.0814842 0.0994087 0.0368121
0.0805085 0.0991155 0.0370595
0.0804872 0.0990948 0.0365283
0.0823899 0.0996234 0.0344137
0.0823706 0.0996031 0.0338732
0.0823513 0.0995828 0.0333315
0.0823319 0.0995624 0.0327885
0.0823125 0.099542 0.0322442
0.082293 0.0995215 0.0316986
0.0803371 0.0989491 0.0327758
0.0803154 0.0989281 0.0322347
0.0802937 0.098907 0.0316923
0.080272 0.0988859 0.0311487
0.0802502 0.0988647 0.0306038
0.0821751 0.0993977 0.0283982
0.0821553 0.0993769 0.0278435
0.0801845 0.0988009 0.0289615
0.0821155 0.0993351 0.0267303
0.0820956 0.0993142 0.0261717
0.0801183 0.0987367 0.0273075
0.0800961 0.0987152 0.0267536
0.0820355 0.099251 0.0244879
0.0820153 0.0992298 0.0239239
0.0819951 0.0992086 0.0233587
0.0819749 0.0991874 0.022792
0.0799845 0.0986068 0.0239642
0.0819343 0.0991447 0.0216546
0.0819139 0.0991233 0.0210839
0.0818935 0.0991018 0.0205118
0.0798943 0.0985192 0.0217087
0.0798716 0.0984972 0.0211415
0.0798489 0.0984751 0.0205729
0.079826 0.098453 0.020003
0.0798032 0.0984308 0.0194317
0.0797803 0.0984086 0.018859
0.0797573 0.0983863 0.0182849
0.0797343 0.0983639 0.0177095
0.0797112 0.0983415 0.0171326
0.0796881 0.098319 0.0165544
0.0796649 0.0982965 0.0159748
0.0796416 0.098274 0.0153938
0.0796183 0.0982513 0.0148114
0.079595 0.0982287 0.0142275
0.0795715 0.0982059 0.0136423
0.0795481 0.0981832 0.0130556
0.0795245 0.0981603 0.0124675
0.079501 0.0981374 0.0118779
0.0794773 0.0981145 0.011287
0.080459 0.098375 0.00973866
0.0794298 0.0980684 0.0101007
0.079406 0.0980453 0.00950538
0.0793822 0.0980221 0.00890861
0.0793582 0.0979988 0.00831037
0.0793342 0.0979756 0.00771066
0.0793102 0.0979522 0.00710948
0.0772895 0.0973668 0.00844789
0.0782576 0.0976227 0.00688217
0.0782322 0.0975989 0.00628073
0.0792134 0.0978582 0.00468989
0.079189 0.0978346 0.00408125
0.0791646 0.0978109 0.0034711
0.0791401 0.0977871 0.00285944
0.0791156 0.0977633 0.00224626
0.0750146 0.0965445 0.00380698
0.0749853 0.0965195 0.00320331
0.345347 0.184347 0.0226885
0.346396 0.184634 0.0206728
0.346924 0.184779 0.0196585
0.347454 0.184924 0.0186398
0.347987 0.185069 0.0176168
0.348521 0.185216 0.0165894
0.124097 0.114286 0.0912836
0.083872 0.10074 0.0734584
0.0838561 0.100723 0.0730054
0.0838402 0.100706 0.0725514
0.0865396 0.101524 0.070362
0.0838082 0.100671 0.0716406
0.0837922 0.100654 0.0711838
0.0837761 0.100636 0.0707259
0.08376 0.100619 0.0702671
0.0837439 0.100601 0.0698072
0.0837277 0.100584 0.0693464
0.0837115 0.100566 0.0688846
0.0836952 0.100548 0.0684218
0.0836789 0.100531 0.067958
0.0836626 0.100513 0.0674931
0.0836463 0.100495 0.0670273
0.0836299 0.100478 0.0665604
0.0836135 0.10046 0.0660926
0.0854251 0.101003 0.0643974
0.0854104 0.100986 0.0639219
0.083564 0.100406 0.0646828
0.0853811 0.100951 0.062968
0.0835308 0.10037 0.0637379
0.0853516 0.100916 0.0620098
0.0834975 0.100334 0.0627888
0.0834808 0.100316 0.0623127
0.0853071 0.100863 0.0605645
0.0834472 0.100279 0.0613573
0.0852773 0.100827 0.0595956
0.0852623 0.100809 0.0591096
0.0852473 0.100791 0.0586225
0.0852323 0.100773 0.0581342
0.0852173 0.100755 0.0576449
0.0852022 0.100737 0.0571545
0.085187 0.100719 0.056663
0.0851719 0.100701 0.0561704
0.0851567 0.100683 0.0556767
0.0851415 0.100665 0.0551819
0.0851262 0.100647 0.054686
0.0851109 0.100629 0.054189
0.0850956 0.10061 0.0536908
0.0832083 0.10002 0.0545502
0.0831909 0.100001 0.0540558
0.0831735 0.0999824 0.0535603
0.0831561 0.0999635 0.0530637
0.0822114 0.0996615 0.0532481
0.0831211 0.0999255 0.0520672
0.0831035 0.0999065 0.0515672
0.083086 0.0998874 0.0510662
0.0830683 0.0998683 0.050564
0.0830507 0.0998491 0.0500606
0.0821 0.0995454 0.0502565
0.0830152 0.0998107 0.0490505
0.0820625 0.0995064 0.0492503
0.0839241 0.10006 0.0473197
0.0829617 0.0997526 0.0475268
0.0829438 0.0997332 0.0470166
0.0829258 0.0997137 0.0465052
0.0848136 0.100274 0.0445282
0.081949 0.0993883 0.0462043
0.0838222 0.0999442 0.0442288
0.0838051 0.0999248 0.0437095
0.0818917 0.0993286 0.0446656
0.0837708 0.0998859 0.0426673
0.082799 0.0995761 0.0428927
0.0808959 0.0989834 0.0438543
0.083719 0.0998271 0.041095
0.0808553 0.0989426 0.042822
0.0827256 0.0994965 0.0408022
0.0827072 0.0994765 0.0402766
0.0826887 0.0994564 0.0397498
0.0826702 0.0994363 0.0392217
0.0826516 0.0994161 0.0386924
0.0835967 0.0996883 0.0373837
0.0816585 0.0990858 0.0384046
0.0806908 0.0987778 0.0386455
0.08067 0.098757 0.0381181
0.0806492 0.0987361 0.0375894
0.0825392 0.0992942 0.0354908
0.0825203 0.0992737 0.0349529
0.0825014 0.0992532 0.0344137
0.0824824 0.0992326 0.0338732
0.0824634 0.099212 0.0333315
0.0805232 0.0986098 0.0343915
0.0805021 0.0985886 0.0338542
0.0804809 0.0985674 0.0333156
0.0804596 0.0985461 0.0327758
0.0804383 0.0985247 0.0322347
0.0804169 0.0985033 0.0316923
0.082329 0.0990662 0.0295035
0.0823096 0.0990451 0.0289515
0.0822902 0.0990241 0.0283982
0.080331 0.0984171 0.0295102
0.0822512 0.0989818 0.0272876
0.0802877 0.0983738 0.0284114
0.082212 0.0989393 0.0261717
0.0802443 0.0983302 0.0273075
0.0821727 0.0988966 0.0250505
0.0802006 0.0982864 0.0261983
0.0821331 0.0988537 0.0239239
0.0821133 0.0988321 0.0233587
0.0820934 0.0988106 0.022792
0.0820734 0.0987889 0.022224
0.0820535 0.0987672 0.0216546
0.0820334 0.0987455 0.0210839
0.0820133 0.0987237 0.0205118
0.0800238 0.0981092 0.0217087
0.0800014 0.0980868 0.0211415
0.079979 0.0980643 0.0205729
0.0799566 0.0980418 0.020003
0.0799341 0.0980193 0.0194317
0.0799115 0.0979967 0.018859
0.0798889 0.097974 0.0182849
0.0798662 0.0979513 0.0177095
0.0798435 0.0979285 0.0171326
0.0798208 0.0979057 0.0165544
0.0797979 0.0978828 0.0159748
0.0797751 0.0978599 0.0153938
0.0797521 0.0978369 0.0148114
0.0797291 0.0978138 0.0142275
0.0797061 0.0977907 0.0136423
0.079683 0.0977676 0.0130556
0.0796598 0.0977444 0.0124675
0.0796366 0.0977211 0.0118779
0.0796133 0.0976977 0.011287
0.07959 0.0976744 0.0106946
0.0795666 0.0976509 0.0101007
0.0795431 0.0976274 0.00950538
0.0795196 0.0976039 0.00890861
0.0794961 0.0975802 0.00831037
0.0794725 0.0975566 0.00771066
0.0794488 0.0975328 0.00710948
0.0774377 0.0969151 0.00844789
0.0794013 0.0974852 0.00590267
0.0793774 0.0974613 0.00529703
0.0793535 0.0974373 0.00468989
0.0793295 0.0974133 0.00408125
0.0793055 0.0973892 0.0034711
0.0792814 0.0973651 0.00285944
0.0792573 0.0973409 0.00224626
0.0751475 0.096031 0.00320331
0.342126 0.192063 0.02369
0.342643 0.192223 0.0226885
0.343161 0.192383 0.0216828
0.343682 0.192544 0.0206728
0.344204 0.192706 0.0196585
0.344729 0.192869 0.0186398
0.345257 0.193032 0.0176168
0.345786 0.193196 0.0165894
0.346318 0.19336 0.0155576
0.126136 0.115702 0.0902162
0.0840704 0.100028 0.0734584
0.0840551 0.10001 0.0730054
0.0876335 0.10123 0.0702391
0.0876218 0.101214 0.0697736
0.0840089 0.0999566 0.0716406
0.0875983 0.10118 0.0688397
0.0875864 0.101163 0.0683712
0.0839625 0.0999027 0.0702671
0.0839469 0.0998846 0.0698072
0.0839313 0.0998666 0.0693464
0.0839157 0.0998485 0.0688846
0.0839 0.0998303 0.0684218
0.0865953 0.100744 0.0661514
0.0865823 0.100727 0.0656784
0.0838529 0.0997756 0.0670273
0.0838371 0.0997573 0.0665604
0.0865433 0.100674 0.0642532
0.0865302 0.100657 0.063776
0.0865171 0.100639 0.0632978
0.086504 0.100621 0.0628185
0.0837576 0.0996651 0.0642109
0.0864777 0.100586 0.0618568
0.0864645 0.100568 0.0613743
0.0855292 0.100234 0.0615291
0.0864379 0.100532 0.0604061
0.0864246 0.100514 0.0599204
0.083661 0.0995532 0.0613573
0.085472 0.100161 0.0595956
0.0827262 0.0992062 0.0610332
0.0854433 0.100124 0.0586225
0.0854289 0.100106 0.0581342
0.0854144 0.100087 0.0576449
0.0853999 0.100069 0.0571545
0.0853854 0.10005 0.056663
0.0826224 0.0990907 0.0581461
0.0853562 0.100013 0.0556767
0.0853416 0.0999947 0.0551819
0.085327 0.099976 0.054686
0.0853123 0.0999573 0.054189
0.0852976 0.0999385 0.0536908
0.0834308 0.0992862 0.0545502
0.0843368 0.0995824 0.0533766
0.0852532 0.0998819 0.0521896
0.0843052 0.099544 0.0523785
0.0852235 0.099844 0.0511831
0.0852085 0.099825 0.0506782
0.0851936 0.0998059 0.0501721
0.0851786 0.0997868 0.0496648
0.0832959 0.0991298 0.050564
0.0832789 0.0991101 0.0500606
0.0851334 0.0997292 0.0481361
0.0851183 0.0997099 0.0476243
0.0813859 0.0984221 0.0499504
0.0813668 0.0984017 0.0494487
0.0850727 0.0996518 0.0460816
0.0831759 0.0989907 0.0470166
0.0831586 0.0989706 0.0465052
0.0831413 0.0989505 0.0459926
0.0850114 0.0995737 0.0440081
0.084996 0.099554 0.0434867
0.081232 0.0982572 0.0459047
0.0812125 0.0982364 0.0453938
0.0849496 0.0994948 0.0419154
0.0849341 0.099475 0.0413892
0.0811539 0.0981737 0.0438543
0.0849029 0.0994352 0.0403331
0.0811146 0.0981316 0.042822
0.0839142 0.0990696 0.0400408
0.0810752 0.0980894 0.0417851
0.0810554 0.0980681 0.0412648
0.0810355 0.0980469 0.0407433
0.0810156 0.0980256 0.0402207
0.0809957 0.0980042 0.0396968
0.0828584 0.0986225 0.0376302
0.0828404 0.0986016 0.0370972
0.0828223 0.0985806 0.036563
0.0828042 0.0985596 0.0360275
0.0808953 0.0978968 0.0370595
0.0808751 0.0978751 0.0365283
0.0808548 0.0978534 0.035996
0.0808345 0.0978317 0.0354624
0.0808142 0.0978099 0.0349276
0.0826946 0.0984326 0.0327885
0.0826762 0.0984112 0.0322442
0.0826577 0.0983898 0.0316986
0.0826392 0.0983684 0.0311518
0.0826207 0.0983469 0.0306037
0.0826021 0.0983253 0.0300542
0.0825835 0.0983037 0.0295035
0.0825648 0.0982821 0.0289515
0.0825461 0.0982604 0.0283982
0.0825273 0.0982386 0.0278435
0.0805871 0.0975667 0.0289615
0.0805662 0.0975443 0.0284114
0.0824708 0.098173 0.0261717
0.0824518 0.0981511 0.0256118
0.0824328 0.0981291 0.0250505
0.0824138 0.098107 0.0244879
0.0823947 0.0980849 0.0239239
0.0823756 0.0980627 0.0233587
0.0823564 0.0980405 0.022792
0.0823372 0.0980182 0.022224
0.082318 0.0979959 0.0216546
0.0822987 0.0979735 0.0210839
0.0822793 0.097951 0.0205118
0.0822599 0.0979285 0.0199383
0.0822405 0.097906 0.0193634
0.082221 0.0978834 0.0187871
0.0822014 0.0978607 0.0182095
0.0821818 0.097838 0.0176304
0.0802026 0.097155 0.018859
0.0811569 0.0974604 0.0173809
0.0811361 0.0974372 0.0168016
0.0811152 0.097414 0.0162208
0.0820832 0.0977236 0.014714
0.0800929 0.0970374 0.0159748
0.0810522 0.097344 0.0144702
0.0800486 0.09699 0.0148114
0.0800264 0.0969662 0.0142275
0.0800041 0.0969424 0.0136423
0.0799818 0.0969185 0.0130556
0.0799594 0.0968945 0.0124675
0.079937 0.0968705 0.0118779
0.0809036 0.0971786 0.0103352
0.0789114 0.096493 0.0116411
0.0808607 0.0971308 0.00914069
0.0778908 0.0961173 0.0114054
0.0788402 0.0964193 0.00986739
0.0788163 0.0963947 0.00927326
0.0797784 0.0967006 0.00771066
0.0797555 0.0966761 0.00710948
0.0777659 0.0959923 0.00844789
0.0777408 0.0959671 0.00785205
0.0777155 0.0959419 0.00725475
0.0776902 0.0959166 0.006656
0.0776649 0.0958912 0.00605577
0.0776395 0.0958658 0.00545407
0.0785989 0.09617 0.00386012
0.0795704 0.0964779 0.00224626
0.079547 0.0964529 0.00163155
0.0755061 0.0950331 0.00320331
0.0754499 0.09498 0.00199151
0.34124 0.196003 0.0226885
0.341756 0.196172 0.0216828
0.342274 0.196341 0.0206728
0.342794 0.196511 0.0196585
0.343316 0.196682 0.0186398
0.343841 0.196854 0.0176168
0.344367 0.197026 0.0165894
0.123688 0.115186 0.0912836
0.0841749 0.0996854 0.0734584
0.0841598 0.0996674 0.0730054
0.0841448 0.0996493 0.0725514
0.0841297 0.0996313 0.0720965
0.0841145 0.0996131 0.0716406
0.0840994 0.099595 0.0711838
0.0867635 0.100547 0.0689676
0.0867509 0.10053 0.0685008
0.0840537 0.0995402 0.0698072
0.0840384 0.0995219 0.0693464
0.084023 0.0995035 0.0688846
0.0867006 0.10046 0.0666233
0.0839923 0.0994667 0.067958
0.0866753 0.100424 0.0656784
0.0866626 0.100407 0.0652044
0.0839459 0.0994111 0.0665604
0.0839304 0.0993925 0.0660926
0.0839148 0.0993739 0.0656237
0.0838992 0.0993552 0.0651538
0.0856856 0.0999877 0.0634455
0.0838679 0.0993177 0.0642109
0.0847511 0.0996236 0.0631164
0.0856441 0.099933 0.0620098
0.0838207 0.0992612 0.0627888
0.0856162 0.0998963 0.0610473
0.0856022 0.0998779 0.0605645
0.0855882 0.0998594 0.0600806
0.0855742 0.0998409 0.0595956
0.0855601 0.0998224 0.0591096
0.085546 0.0998038 0.0586225
0.0855319 0.0997852 0.0581342
0.0855177 0.0997665 0.0576449
0.0855035 0.0997478 0.0571545
0.0854893 0.099729 0.056663
0.0854751 0.0997103 0.0561704
0.0854608 0.0996914 0.0556767
0.0836125 0.0990118 0.0565167
0.0854321 0.0996536 0.054686
0.0835799 0.0989728 0.0555356
0.0835636 0.0989532 0.0550435
0.0835472 0.0989336 0.0545502
0.0853744 0.0995775 0.0526911
0.0853598 0.0995584 0.0521896
0.0844174 0.0992054 0.0523785
0.0853307 0.09952 0.0511831
0.0853161 0.0995008 0.0506782
0.0853015 0.0994815 0.0501721
0.0843549 0.0991271 0.0503687
0.0834148 0.0987751 0.050564
0.0833981 0.0987551 0.0500606
0.0815538 0.0980783 0.0509505
0.0852277 0.0993843 0.0476243
0.0815164 0.098037 0.0499504
0.0814976 0.0980162 0.0494487
0.083314 0.0986543 0.0475268
0.0832971 0.0986341 0.0470166
0.0832801 0.0986137 0.0465052
0.0832631 0.0985933 0.0459926
0.0814032 0.0979117 0.046923
0.0813842 0.0978907 0.0464144
0.0813651 0.0978696 0.0459047
0.081346 0.0978485 0.0453938
0.0813268 0.0978273 0.0448818
0.0813076 0.0978061 0.0443686
0.0812884 0.0977848 0.0438543
0.0812691 0.0977635 0.0433387
0.0812498 0.0977421 0.042822
0.0812304 0.0977207 0.0423041
0.081211 0.0976992 0.0417851
0.0811916 0.0976777 0.0412648
0.081172 0.0976562 0.0407433
0.0811525 0.0976345 0.0402207
0.0811329 0.0976129 0.0396968
0.0829855 0.0982608 0.0376302
0.0829678 0.0982396 0.0370972
0.0829501 0.0982184 0.036563
0.0829323 0.0981971 0.0360275
0.0829145 0.0981758 0.0354908
0.0819511 0.0978165 0.0357443
0.0809945 0.0974598 0.035996
0.0809745 0.0974377 0.0354624
0.0809545 0.0974156 0.0349276
0.0809345 0.0973935 0.0343915
0.0818561 0.0977074 0.033053
0.0827886 0.098025 0.0316986
0.0827704 0.0980033 0.0311518
0.0827522 0.0979815 0.0306037
0.082734 0.0979596 0.0300542
0.0827157 0.0979377 0.0295035
0.0807928 0.0972368 0.0306038
0.0807724 0.0972142 0.0300576
0.0826606 0.0978717 0.0278435
0.0826421 0.0978496 0.0272876
0.0826236 0.0978275 0.0267303
0.0826051 0.0978052 0.0261717
0.0825865 0.097783 0.0256118
0.0825679 0.0977607 0.0250505
0.0825492 0.0977383 0.0244879
0.0825305 0.0977159 0.0239239
0.0825117 0.0976934 0.0233587
0.0824929 0.0976709 0.022792
0.082474 0.0976483 0.022224
0.0824551 0.0976256 0.0216546
0.0824362 0.0976029 0.0210839
0.0824172 0.0975802 0.0205118
0.0823982 0.0975574 0.0199383
0.0823791 0.0975345 0.0193634
0.0804176 0.0968219 0.0205729
0.0823408 0.0974887 0.0182095
0.0823216 0.0974656 0.0176304
0.0823023 0.0974426 0.01705
0.0803321 0.0967273 0.0182849
0.0803105 0.0967035 0.0177095
0.080289 0.0966797 0.0171326
0.0802673 0.0966557 0.0165544
0.0802457 0.0966318 0.0159748
0.0802239 0.0966077 0.0153938
0.0802021 0.0965836 0.0148114
0.0801803 0.0965595 0.0142275
0.0801584 0.0965353 0.0136423
0.0801365 0.096511 0.0130556
0.0801145 0.0964867 0.0124675
0.0800924 0.0964623 0.0118779
0.081054 0.0967859 0.0103352
0.079073 0.0960685 0.0116411
0.080026 0.0963888 0.0101007
0.0800037 0.0963642 0.00950538
0.0799814 0.0963395 0.00890861
0.079959 0.0963148 0.00831037
0.0799366 0.09629 0.00771066
0.0799141 0.0962651 0.00710948
0.0798915 0.0962402 0.00650682
0.0788851 0.0958679 0.00688217
0.0788614 0.0958425 0.00628073
0.0778612 0.0954726 0.006656
0.0798008 0.0961399 0.00408125
0.079778 0.0961146 0.0034711
0.0797551 0.0960893 0.00285944
0.0797322 0.096064 0.00224626
0.0797092 0.0960385 0.00163155
0.0756915 0.0945543 0.00320331
0.0756362 0.0945004 0.00199151
0.339219 0.201148 0.0226885
0.339731 0.201328 0.0216828
0.340245 0.201509 0.0206728
0.340761 0.20169 0.0196585
0.34128 0.201872 0.0186398
0.3418 0.202055 0.0176168
0.342323 0.202239 0.0165894
0.123491 0.115582 0.0912836
0.084327 0.0992187 0.0734584
0.0843123 0.0992003 0.0730054
0.087842 0.100555 0.0702391
0.0869323 0.10019 0.070362
0.0869202 0.100172 0.0698982
0.0869081 0.100155 0.0694334
0.086896 0.100137 0.0689676
0.0868839 0.100119 0.0685008
0.0868718 0.100102 0.068033
0.0868596 0.100084 0.0675641
0.0841792 0.0990335 0.0688846
0.085937 0.0997007 0.0672281
0.0841492 0.098996 0.067958
0.0841342 0.0989772 0.0674931
0.0841191 0.0989583 0.0670273
0.0841041 0.0989394 0.0665604
0.0867736 0.0999584 0.0642532
0.0840738 0.0989015 0.0656237
0.0840586 0.0988825 0.0651538
0.0867363 0.099904 0.0628185
0.0858173 0.0995355 0.062968
0.0858039 0.099517 0.0624894
0.0839975 0.098806 0.0632639
0.0839822 0.0987868 0.0627888
0.0839668 0.0987675 0.0623127
0.0839514 0.0987482 0.0618355
0.0857362 0.0994236 0.0600806
0.0857226 0.0994048 0.0595956
0.0857089 0.099386 0.0591096
0.0829984 0.0983268 0.0605547
0.0829819 0.098307 0.0600751
0.0829653 0.0982871 0.0595944
0.085654 0.0993102 0.0571545
0.0829322 0.0982473 0.0586299
0.0856263 0.099272 0.0561704
0.0837953 0.0985527 0.0570056
0.0837795 0.0985329 0.0565167
0.0837636 0.0985131 0.0560267
0.0837478 0.0984932 0.0555356
0.0837319 0.0984732 0.0550435
0.0837159 0.0984533 0.0545502
0.0855285 0.0991371 0.0526911
0.0855144 0.0991177 0.0521896
0.082764 0.0980453 0.0537428
0.0854862 0.0990787 0.0511831
0.0818323 0.0976591 0.0534313
0.0827128 0.0979839 0.0522554
0.0854435 0.0990198 0.0496648
0.0835871 0.0982919 0.050564
0.0835708 0.0982715 0.0500606
0.0817418 0.0975545 0.0509505
0.0817236 0.0975335 0.050451
0.0853718 0.0989208 0.0471112
0.0853573 0.0989009 0.046597
0.0853428 0.0988809 0.0460816
0.0816502 0.0974487 0.0484418
0.0834559 0.0981276 0.0465052
0.0834394 0.0981069 0.0459926
0.0815948 0.0973847 0.046923
0.0852699 0.0987803 0.0434867
0.0852552 0.09876 0.0429641
0.081539 0.0973202 0.0453938
0.0815204 0.0972986 0.0448818
0.0815016 0.097277 0.0443686
0.0814829 0.0972553 0.0438543
0.0814641 0.0972335 0.0433387
0.0814452 0.0972117 0.042822
0.0814263 0.0971899 0.0423041
0.0814074 0.097168 0.0417851
0.0813884 0.0971461 0.0412648
0.0813694 0.0971241 0.0407433
0.0813503 0.0971021 0.0402207
0.0813312 0.09708 0.0396968
0.081312 0.0970578 0.0391718
0.0812928 0.0970356 0.0386455
0.0831346 0.0977252 0.036563
0.0831173 0.0977035 0.0360275
0.0831 0.0976818 0.0354908
0.0830826 0.09766 0.0349529
0.0830652 0.0976382 0.0344137
0.0830477 0.0976163 0.0338732
0.0811572 0.0968789 0.0349276
0.0811376 0.0968562 0.0343915
0.081118 0.0968336 0.0338542
0.0810983 0.0968109 0.0333156
0.0810786 0.0967881 0.0327758
0.0810589 0.0967653 0.0322347
0.0810391 0.0967424 0.0316923
0.0819584 0.0970778 0.03033
0.0828886 0.0974171 0.0289515
0.0828707 0.0973947 0.0283982
0.0828528 0.0973722 0.0278435
0.0828349 0.0973497 0.0272876
0.0809194 0.0966041 0.0284114
0.0827988 0.0973045 0.0261717
0.0799418 0.0962005 0.0281433
0.0827626 0.0972592 0.0250505
0.0827444 0.0972364 0.0244879
0.0827261 0.0972136 0.0239239
0.0827079 0.0971907 0.0233587
0.0826896 0.0971677 0.022792
0.0826712 0.0971447 0.022224
0.0826528 0.0971217 0.0216546
0.0826344 0.0970986 0.0210839
0.0826159 0.0970754 0.0205118
0.0825973 0.0970522 0.0199383
0.0825788 0.097029 0.0193634
0.0825601 0.0970056 0.0187871
0.0825415 0.0969822 0.0182095
0.0825228 0.0969588 0.0176304
0.082504 0.0969353 0.01705
0.0824852 0.0969118 0.0164681
0.0824663 0.0968881 0.0158848
0.0805079 0.0961285 0.0171326
0.07953 0.0957411 0.0174613
0.0795078 0.0957163 0.0168856
0.0814127 0.0964223 0.0144702
0.0813925 0.0963981 0.0138838
0.0794409 0.0956417 0.0151501
0.0794185 0.0956167 0.0145688
0.0803591 0.0959565 0.0130556
0.0803377 0.0959317 0.0124675
0.0803162 0.0959069 0.0118779
0.0812704 0.0962514 0.0103352
0.0812499 0.0962268 0.00973866
0.0783239 0.0951025 0.0119926
0.0812087 0.0961773 0.00854124
0.0792373 0.0954145 0.00986739
0.080186 0.0957564 0.00831037
0.0801641 0.0957311 0.00771066
0.0801422 0.0957058 0.00710948
0.0791453 0.0953119 0.00748214
0.0791222 0.0952861 0.00688217
0.0800761 0.0956294 0.00529703
0.0800539 0.0956038 0.00468989
0.0800317 0.0955781 0.00408125
0.0800094 0.0955524 0.0034711
0.0799871 0.0955266 0.00285944
0.0809572 0.0958752 0.00123119
0.0759581 0.0939029 0.00320331
0.337874 0.204399 0.0226885
0.338384 0.204586 0.0216828
0.338895 0.204774 0.0206728
0.339409 0.204962 0.0196585
0.339925 0.205152 0.0186398
0.340443 0.205342 0.0176168
0.340963 0.205533 0.0165894
0.123361 0.115831 0.0912836
0.0844291 0.0989234 0.0734584
0.0844147 0.0989049 0.0730054
0.0844003 0.0988863 0.0725514
0.0861347 0.0995734 0.0709452
0.0870088 0.0999132 0.0698982
0.0869969 0.0998954 0.0694334
0.0869851 0.0998776 0.0689676
0.0869732 0.0998597 0.0685008
0.0869613 0.0998418 0.068033
0.0842985 0.0987551 0.0693464
0.0842839 0.0987362 0.0688846
0.0842692 0.0987173 0.0684218
0.0860193 0.0994095 0.0667589
0.0860064 0.0993911 0.0662886
0.0859934 0.0993726 0.0658174
0.0842101 0.0986411 0.0665604
0.0841952 0.098622 0.0660926
0.0841803 0.0986028 0.0656237
0.0859411 0.0992984 0.0639219
0.085928 0.0992798 0.0634455
0.0850212 0.0989014 0.0635922
0.0859017 0.0992423 0.0624894
0.0841054 0.0985062 0.0632639
0.0840903 0.0984868 0.0627888
0.0840752 0.0984673 0.0623127
0.0840601 0.0984477 0.0618355
0.0858353 0.099148 0.0600806
0.0858219 0.099129 0.0595956
0.0858085 0.09911 0.0591096
0.0857951 0.0990909 0.0586225
0.0857817 0.0990718 0.0581342
0.0857682 0.0990526 0.0576449
0.0857547 0.0990334 0.0571545
0.0857411 0.0990142 0.056663
0.0839222 0.09827 0.0574934
0.0839067 0.0982501 0.0570056
0.0838912 0.0982301 0.0565167
0.0838756 0.09821 0.0560267
0.0847624 0.098552 0.0548653
0.0838444 0.0981698 0.0550435
0.0838288 0.0981496 0.0545502
0.0856317 0.0988586 0.0526911
0.0837973 0.0981091 0.0535603
0.0837816 0.0980887 0.0530637
0.0837658 0.0980684 0.052566
0.0837499 0.098048 0.0520672
0.0837341 0.0980275 0.0515672
0.0837181 0.098007 0.0510662
0.0837022 0.0979864 0.050564
0.0836862 0.0979658 0.0500606
0.0818674 0.0972234 0.0509505
0.0836541 0.0979245 0.0490505
0.0836381 0.0979038 0.0485438
0.0836219 0.097883 0.0480358
0.0836058 0.0978621 0.0475268
0.0835896 0.0978413 0.0470166
0.0835733 0.0978203 0.0465052
0.0835571 0.0977994 0.0459926
0.0817228 0.0970515 0.046923
0.0817045 0.0970298 0.0464144
0.0816862 0.097008 0.0459047
0.0834916 0.097715 0.0439307
0.0816495 0.0969644 0.0448818
0.0816311 0.0969425 0.0443686
0.0843696 0.0980216 0.0416203
0.0815941 0.0968985 0.0433387
0.0815756 0.0968765 0.042822
0.081557 0.0968544 0.0423041
0.0815384 0.0968322 0.0417851
0.0815197 0.09681 0.0412648
0.081501 0.0967878 0.0407433
0.0814822 0.0967655 0.0402207
0.0814634 0.0967431 0.0396968
0.0814446 0.0967207 0.0391718
0.0814257 0.0966983 0.0386455
0.0814067 0.0966758 0.0381181
0.0813878 0.0966532 0.0375894
0.0813687 0.0966306 0.0370595
0.0813497 0.0966079 0.0365283
0.0831894 0.0973255 0.0344137
0.0831723 0.0973034 0.0338732
0.0831551 0.0972812 0.0333315
0.0831378 0.097259 0.0327885
0.0831206 0.0972367 0.0322442
0.0831032 0.0972144 0.0316986
0.0830859 0.097192 0.0311518
0.0811956 0.0964247 0.0322347
0.0811761 0.0964015 0.0316923
0.0830335 0.0971245 0.0295035
0.0820721 0.0967267 0.0297816
0.0829984 0.0970793 0.0283982
0.0829808 0.0970566 0.0278435
0.0829632 0.0970338 0.0272876
0.0829455 0.097011 0.0267303
0.0829278 0.0969882 0.0261717
0.08291 0.0969653 0.0256118
0.0828922 0.0969423 0.0250505
0.0828743 0.0969193 0.0244879
0.0828564 0.0968962 0.0239239
0.0828384 0.096873 0.0233587
0.0828205 0.0968498 0.022792
0.0828024 0.0968266 0.022224
0.0808785 0.0960478 0.0234023
0.0808583 0.0960238 0.0228391
0.0808381 0.0959997 0.0222746
0.0808177 0.0959755 0.0217087
0.0807974 0.0959513 0.0211415
0.080777 0.095927 0.0205729
0.0807565 0.0959027 0.020003
0.080736 0.0958783 0.0194317
0.0807155 0.0958539 0.018859
0.0806948 0.0958294 0.0182849
0.081633 0.0961842 0.0168016
0.0806535 0.0957802 0.0171326
0.0806327 0.0957556 0.0165544
0.0806119 0.0957308 0.0159748
0.0805911 0.095706 0.0153938
0.0805702 0.0956812 0.0148114
0.0805492 0.0956563 0.0142275
0.0805282 0.0956313 0.0136423
0.0805071 0.0956063 0.0130556
0.080486 0.0955812 0.0124675
0.0814344 0.0959387 0.0109302
0.0804437 0.0955308 0.011287
0.0804224 0.0955055 0.0106946
0.0804011 0.0954802 0.0101007
0.0803797 0.0954548 0.00950538
0.0803583 0.0954293 0.00890861
0.0803368 0.0954038 0.00831037
0.0803153 0.0953782 0.00771066
0.0802937 0.0953525 0.00710948
0.0802721 0.0953268 0.00650682
0.0802504 0.095301 0.00590267
0.0802287 0.0952752 0.00529703
0.0802069 0.0952493 0.00468989
0.080185 0.0952233 0.00408125
0.0801631 0.0951972 0.0034711
0.0801412 0.0951711 0.00285944
0.0781743 0.0943799 0.00424624
0.0761352 0.0934914 0.00320331
0.0761086 0.0934635 0.00259815
0.0770378 0.0938109 0.000986586
0.336211 0.208251 0.0226885
0.336718 0.208446 0.0216828
0.337226 0.208643 0.0206728
0.337736 0.20884 0.0196585
0.338249 0.209038 0.0186398
0.338764 0.209237 0.0176168
0.339281 0.209437 0.0165894
0.123201 0.116126 0.0912836
0.0845562 0.0985732 0.0734584
0.0845422 0.0985544 0.0730054
0.0845281 0.0985356 0.0725514
0.0871306 0.0996237 0.070362
0.0871191 0.0996057 0.0698982
0.0862259 0.0992149 0.070022
0.087096 0.0995697 0.0689676
0.0870844 0.0995517 0.0685008
0.0870728 0.0995336 0.068033
0.0861759 0.0991413 0.0681634
0.0844142 0.0983836 0.0688846
0.0843998 0.0983644 0.0684218
0.0843854 0.0983452 0.067958
0.0843709 0.0983259 0.0674931
0.0861128 0.0990484 0.0658174
0.0861001 0.0990297 0.0653451
0.0843274 0.0982679 0.0660926
0.0843129 0.0982485 0.0656237
0.0842983 0.098229 0.0651538
0.086049 0.0989544 0.0634455
0.0860362 0.0989355 0.062968
0.0851349 0.0985418 0.0631164
0.0860104 0.0988976 0.0620098
0.0859975 0.0988785 0.0615291
0.0859845 0.0988594 0.0610473
0.0859715 0.0988403 0.0605645
0.0841803 0.0980716 0.0613573
0.0859455 0.0988019 0.0595956
0.0859324 0.0987827 0.0591096
0.0859193 0.0987634 0.0586225
0.0859062 0.098744 0.0581342
0.085893 0.0987247 0.0576449
0.0858798 0.0987052 0.0571545
0.0858666 0.0986858 0.056663
0.0840603 0.0979115 0.0574934
0.0840452 0.0978913 0.0570056
0.08403 0.097871 0.0565167
0.0840147 0.0978507 0.0560267
0.0839995 0.0978303 0.0555356
0.0839842 0.0978099 0.0550435
0.0839689 0.0977895 0.0545502
0.0839535 0.097769 0.0540558
0.0839381 0.0977484 0.0535603
0.0839227 0.0977279 0.0530637
0.0839072 0.0977072 0.052566
0.0838917 0.0976866 0.0520672
0.08478 0.0980455 0.0508728
0.0820756 0.0968953 0.0524423
0.0820582 0.0968738 0.0519462
0.0838294 0.0976034 0.0500606
0.0820231 0.0968308 0.0509505
0.083798 0.0975615 0.0490505
0.0828811 0.0971623 0.0492503
0.0828643 0.0971409 0.0487455
0.0828476 0.0971195 0.0482395
0.0819349 0.0967222 0.0484418
0.0819171 0.0967004 0.0479367
0.083703 0.0974348 0.0459926
0.0818815 0.0966565 0.046923
0.0818636 0.0966345 0.0464144
0.0818456 0.0966124 0.0459047
0.0818277 0.0965903 0.0453938
0.0836229 0.0973278 0.0434123
0.0817916 0.096546 0.0443686
0.0817735 0.0965237 0.0438543
0.0817554 0.0965014 0.0433387
0.0817372 0.0964791 0.042822
0.081719 0.0964567 0.0423041
0.0817007 0.0964342 0.0417851
0.0816824 0.0964117 0.0412648
0.0816641 0.0963891 0.0407433
0.0816457 0.0963665 0.0402207
0.0816273 0.0963439 0.0396968
0.0834433 0.0970882 0.0376302
0.0815903 0.0962984 0.0386455
0.0834101 0.0970439 0.036563
0.0815531 0.0962527 0.0375894
0.0815345 0.0962298 0.0370595
0.0815158 0.0962068 0.0365283
0.0814971 0.0961837 0.035996
0.0814783 0.0961607 0.0354624
0.0814595 0.0961375 0.0349276
0.0814406 0.0961143 0.0343915
0.0814217 0.0960911 0.0338542
0.0823265 0.0964532 0.0325109
0.0823085 0.0964302 0.0319676
0.083225 0.0967969 0.0306037
0.0832079 0.0967742 0.0300542
0.0831908 0.0967513 0.0295035
0.0813074 0.0959505 0.0306038
0.0831565 0.0967055 0.0283982
0.0831393 0.0966825 0.0278435
0.083122 0.0966595 0.0272876
0.0831047 0.0966364 0.0267303
0.0830873 0.0966132 0.0261717
0.0811914 0.0958078 0.0273075
0.0811719 0.0957839 0.0267536
0.0811524 0.0957599 0.0261983
0.0811328 0.0957358 0.0256418
0.0829999 0.0964966 0.0233587
0.0810935 0.0956874 0.0245247
0.0810738 0.0956632 0.0239642
0.081054 0.0956389 0.0234023
0.0810342 0.0956145 0.0228391
0.0810144 0.0955901 0.0222746
0.0809944 0.0955656 0.0217087
0.0809745 0.0955411 0.0211415
0.0809545 0.0955165 0.0205729
0.0809344 0.0954918 0.020003
0.0809143 0.0954671 0.0194317
0.0808942 0.0954423 0.018859
0.080874 0.0954175 0.0182849
0.0808538 0.0953926 0.0177095
0.0808335 0.0953676 0.0171326
0.0789318 0.0945622 0.0183594
0.0807927 0.0953175 0.0159748
0.0817289 0.095689 0.0144702
0.0807518 0.0952672 0.0148114
0.08169 0.0956393 0.0132959
0.0816704 0.0956143 0.0127067
0.0816509 0.0955893 0.012116
0.0806693 0.0951658 0.0124675
0.0806486 0.0951403 0.0118779
0.0806278 0.0951147 0.011287
0.080607 0.0950891 0.0106946
0.0805861 0.0950634 0.0101007
0.0796073 0.0946413 0.0104601
0.0805441 0.0950118 0.00890861
0.0805231 0.0949859 0.00831037
0.080502 0.09496 0.00771066
0.0804809 0.094934 0.00710948
0.0804597 0.0949079 0.00650682
0.0804384 0.0948818 0.00590267
0.0804171 0.0948556 0.00529703
0.0803957 0.0948293 0.00468989
0.0803743 0.094803 0.00408125
0.0803529 0.0947766 0.0034711
0.0803313 0.0947501 0.00285944
0.0783779 0.0939263 0.00424624
0.0812698 0.095102 0.000612126
0.0763539 0.0930039 0.00320331
0.0763277 0.0929756 0.00259815
0.077251 0.0933384 0.000986586
0.334721 0.211562 0.0226885
0.335224 0.211765 0.0216828
0.335729 0.211969 0.0206728
0.336237 0.212173 0.0196585
0.336747 0.212379 0.0186398
0.337259 0.212585 0.0176168
0.337773 0.212792 0.0165894
0.123059 0.11638 0.0912836
0.084671 0.0982718 0.0734584
0.0846572 0.0982528 0.0730054
0.0846434 0.0982338 0.0725514
0.08723 0.0993593 0.070362
0.0846156 0.0981957 0.0716406
0.0872074 0.099323 0.0694334
0.0871962 0.0993048 0.0689676
0.0871848 0.0992866 0.0685008
0.0871735 0.0992683 0.068033
0.0871621 0.09925 0.0675641
0.0871507 0.0992317 0.0670943
0.0862577 0.0988258 0.0672281
0.0862454 0.098807 0.0667589
0.0871164 0.0991764 0.0656784
0.0862206 0.0987693 0.0658174
0.0844609 0.0979828 0.0665604
0.0861957 0.0987315 0.0648717
0.0861832 0.0987126 0.0643974
0.0861707 0.0986935 0.0639219
0.0861581 0.0986745 0.0634455
0.0861456 0.0986554 0.062968
0.0843749 0.0978646 0.0637379
0.0861203 0.0986171 0.0620098
0.0861077 0.0985978 0.0615291
0.086095 0.0985786 0.0610473
0.0860823 0.0985593 0.0605645
0.0860696 0.0985399 0.0600806
0.0834149 0.0973621 0.0615107
0.0833994 0.0973416 0.0610332
0.0860312 0.0984816 0.0586225
0.0860183 0.0984621 0.0581342
0.0860054 0.0984425 0.0576449
0.0859925 0.0984229 0.0571545
0.0833213 0.0972387 0.0586299
0.0841846 0.097603 0.0574934
0.0841698 0.0975826 0.0570056
0.0841549 0.0975621 0.0565167
0.08414 0.0975416 0.0560267
0.0850157 0.0979109 0.0548653
0.08411 0.0975004 0.0550435
0.084095 0.0974797 0.0545502
0.0840799 0.097459 0.0540558
0.0849592 0.0978295 0.0528781
0.0840497 0.0974174 0.0530637
0.0849308 0.0977885 0.0518777
0.0831302 0.0969869 0.0527523
0.083114 0.0969656 0.0522554
0.0822148 0.0965584 0.0524423
0.0839735 0.0973127 0.050564
0.0839582 0.0972916 0.0500606
0.0821633 0.0964931 0.0509505
0.0830327 0.0968585 0.049754
0.0830163 0.0968369 0.0492503
0.0829999 0.0968153 0.0487455
0.0829834 0.0967936 0.0482395
0.0820766 0.0963833 0.0484418
0.0838499 0.0971427 0.0465052
0.0838343 0.0971212 0.0459926
0.0820241 0.0963168 0.046923
0.0820065 0.0962945 0.0464144
0.0819889 0.0962722 0.0459047
0.0819713 0.0962499 0.0453938
0.0819536 0.0962275 0.0448818
0.0819358 0.096205 0.0443686
0.0819181 0.0961825 0.0438543
0.0819002 0.0961599 0.0433387
0.0818824 0.0961373 0.042822
0.0818645 0.0961146 0.0423041
0.0818466 0.0960919 0.0417851
0.0845646 0.0972605 0.0389816
0.0818106 0.0960463 0.0407433
0.0817925 0.0960234 0.0402207
0.0835957 0.0967932 0.0381619
0.0817563 0.0959775 0.0391718
0.0817381 0.0959545 0.0386455
0.0817199 0.0959314 0.0381181
0.0817016 0.0959083 0.0375894
0.0816833 0.0958851 0.0370595
0.083498 0.0966587 0.0349529
0.0834815 0.0966362 0.0344137
0.0816281 0.0958152 0.0354624
0.0816096 0.0957918 0.0349276
0.0815911 0.0957683 0.0343915
0.0815725 0.0957448 0.0338542
0.0815539 0.0957212 0.0333156
0.0815353 0.0956976 0.0327758
0.0815166 0.0956739 0.0322347
0.0814978 0.0956502 0.0316923
0.0814791 0.0956264 0.0311487
0.0814602 0.0956025 0.0306038
0.0832983 0.0963842 0.0283982
0.0832814 0.0963609 0.0278435
0.0804861 0.0951329 0.0297866
0.0832475 0.0963143 0.0267303
0.0832304 0.0962909 0.0261717
0.0832134 0.0962674 0.0256118
0.0831963 0.0962439 0.0250505
0.0831791 0.0962203 0.0244879
0.0803655 0.0949855 0.0264885
0.0831447 0.096173 0.0233587
0.0812502 0.0953365 0.0245247
0.0812308 0.0953119 0.0239642
0.0812114 0.0952874 0.0234023
0.0811919 0.0952627 0.0228391
0.0811724 0.095238 0.0222746
0.0811529 0.0952132 0.0217087
0.0811333 0.0951884 0.0211415
0.0811136 0.0951635 0.0205729
0.0810939 0.0951386 0.020003
0.0810742 0.0951136 0.0194317
0.0810544 0.0950885 0.018859
0.0810346 0.0950634 0.0182849
0.0819612 0.0954471 0.0168016
0.0809948 0.0950129 0.0171326
0.0791049 0.0941802 0.0183594
0.0809548 0.0949623 0.0159748
0.0818854 0.0953472 0.0144702
0.0809146 0.0949114 0.0148114
0.0799508 0.0944787 0.0151501
0.0808742 0.0948602 0.0136423
0.0818089 0.0952464 0.012116
0.0808336 0.0948088 0.0124675
0.0808132 0.094783 0.0118779
0.0807928 0.0947571 0.011287
0.0807723 0.0947312 0.0106946
0.0788591 0.0938898 0.0119926
0.0797792 0.094269 0.0104601
0.0807106 0.094653 0.00890861
0.0806899 0.0946268 0.00831037
0.0806692 0.0946006 0.00771066
0.0806484 0.0945743 0.00710948
0.0806276 0.0945479 0.00650682
0.0806067 0.0945214 0.00590267
0.0796263 0.0940822 0.00628073
0.0805648 0.0944684 0.00468989
0.0795822 0.0940283 0.0050734
0.0805227 0.094415 0.0034711
0.0805016 0.0943883 0.00285944
0.0804804 0.0943614 0.00224626
0.0814349 0.0947536 0.000612126
0.0765497 0.092585 0.00320331
0.0765239 0.0925563 0.00259815
0.0774419 0.0929324 0.000986586
0.332749 0.215757 0.0226885
0.333248 0.215969 0.0216828
0.33375 0.216182 0.0206728
0.334254 0.216395 0.0196585
0.33476 0.21661 0.0186398
0.335268 0.216826 0.0176168
0.335778 0.217042 0.0165894
0.33629 0.21726 0.0155576
0.0848103 0.0978704 0.0730054
0.0873731 0.0990422 0.0708248
0.0873623 0.0990239 0.070362
0.0873514 0.0990056 0.0698982
0.0873404 0.0989872 0.0694334
0.0873295 0.0989689 0.0689676
0.0873185 0.0989504 0.0685008
0.0873075 0.098932 0.068033
0.0872965 0.0989135 0.0675641
0.086412 0.0984916 0.0676963
0.0872743 0.0988763 0.0666233
0.0846604 0.0976561 0.067958
0.086376 0.0984346 0.0662886
0.0846328 0.0976166 0.0670273
0.0863518 0.0983964 0.0653451
0.0863397 0.0983773 0.0648717
0.0863276 0.0983581 0.0643974
0.0863154 0.0983388 0.0639219
0.0863032 0.0983196 0.0634455
0.086291 0.0983002 0.062968
0.0862788 0.0982809 0.0624894
0.0862665 0.0982614 0.0620098
0.084507 0.0974367 0.0627888
0.0836299 0.0970189 0.062937
0.0836148 0.0969983 0.0624626
0.0844645 0.097376 0.0613573
0.0862047 0.0981637 0.0595956
0.0861923 0.0981441 0.0591096
0.0835543 0.0969154 0.0605547
0.0835391 0.0968946 0.0600751
0.0835238 0.0968737 0.0595944
0.0835085 0.0968528 0.0591127
0.0843642 0.0972326 0.0579802
0.0843497 0.097212 0.0574934
0.0843353 0.0971913 0.0570056
0.0843207 0.0971705 0.0565167
0.0851887 0.0975556 0.0553594
0.0860664 0.0979449 0.054189
0.084277 0.097108 0.0550435
0.0842624 0.0970871 0.0545502
0.0842477 0.0970661 0.0540558
0.084233 0.097045 0.0535603
0.0842182 0.097024 0.0530637
0.0842035 0.0970028 0.052566
0.0841886 0.0969817 0.0520672
0.0859636 0.0977824 0.0501721
0.0841589 0.0969392 0.0510662
0.084144 0.0969179 0.050564
0.0841291 0.0968965 0.0500606
0.0841141 0.0968751 0.0495561
0.0858984 0.0976793 0.0476243
0.084084 0.0968321 0.0485438
0.084069 0.0968106 0.0480358
0.0858589 0.0976168 0.0460816
0.0840387 0.0967673 0.0470166
0.0840235 0.0967456 0.0465052
0.0840083 0.0967238 0.0459926
0.0822132 0.0958863 0.046923
0.082196 0.0958637 0.0464144
0.0821789 0.0958411 0.0459047
0.0821616 0.0958184 0.0453938
0.0821443 0.0957957 0.0448818
0.082127 0.0957729 0.0443686
0.0821097 0.09575 0.0438543
0.0820923 0.0957271 0.0433387
0.0820748 0.0957042 0.042822
0.0820574 0.0956812 0.0423041
0.0820398 0.0956582 0.0417851
0.0820223 0.0956351 0.0412648
0.0820047 0.0956119 0.0407433
0.0837916 0.096414 0.0386924
0.0819694 0.0955655 0.0396968
0.08376 0.0963689 0.0376302
0.0819339 0.0955188 0.0386455
0.0819161 0.0954954 0.0381181
0.0837124 0.0963009 0.0360275
0.0836965 0.0962781 0.0354908
0.0818625 0.0954248 0.0365283
0.0836645 0.0962324 0.0344137
0.0836485 0.0962094 0.0338732
0.0836324 0.0961864 0.0333315
0.0836163 0.0961634 0.0327885
0.0836001 0.0961403 0.0322442
0.0835839 0.0961171 0.0316986
0.0835677 0.0960939 0.0311518
0.0826302 0.0956504 0.031423
0.0816993 0.0952101 0.0316923
0.0816809 0.095186 0.0311487
0.0816626 0.0951618 0.0306038
0.0834859 0.095977 0.0283982
0.0834695 0.0959535 0.0278435
0.083453 0.0959299 0.0272876
0.0834364 0.0959063 0.0267303
0.0834198 0.0958825 0.0261717
0.0834032 0.0958588 0.0256118
0.0833865 0.095835 0.0250505
0.0833698 0.0958111 0.0244879
0.0814951 0.0949415 0.0256418
0.0833363 0.0957631 0.0233587
0.0814574 0.0948919 0.0245247
0.0814385 0.094867 0.0239642
0.0832857 0.0956908 0.0216546
0.0832688 0.0956666 0.0210839
0.0813815 0.094792 0.0222746
0.0832348 0.095618 0.0199383
0.0832177 0.0955936 0.0193634
0.0813241 0.0947165 0.0205729
0.0813049 0.0946912 0.020003
0.0812856 0.0946658 0.0194317
0.0812663 0.0946404 0.018859
0.0812469 0.0946149 0.0182849
0.0821664 0.0950155 0.0168016
0.081208 0.0945637 0.0171326
0.0793337 0.0936964 0.0183594
0.0811689 0.0945123 0.0159748
0.0811493 0.0944865 0.0153938
0.0820738 0.0948888 0.0138838
0.0820552 0.0948633 0.0132959
0.0810902 0.0944088 0.0136423
0.0810704 0.0943827 0.0130556
0.0810506 0.0943566 0.0124675
0.0810307 0.0943305 0.0118779
0.0800696 0.0938779 0.0122295
0.0809908 0.0942779 0.0106946
0.0809707 0.0942516 0.0101007
0.0809507 0.0942251 0.00950538
0.0809305 0.0941986 0.00890861
0.0809103 0.0941721 0.00831037
0.0808901 0.0941454 0.00771066
0.0808698 0.0941188 0.00710948
0.0808495 0.094092 0.00650682
0.0808291 0.0940652 0.00590267
0.0808087 0.0940383 0.00529703
0.0807882 0.0940113 0.00468989
0.0807676 0.0939843 0.00408125
0.080747 0.0939572 0.0034711
0.0807264 0.0939301 0.00285944
0.078801 0.0930427 0.00424624
0.080685 0.0938756 0.00163155
0.0768083 0.0920545 0.00320331
0.0767831 0.0920253 0.00259815
0.077694 0.0924182 0.000986586
0.331001 0.219317 0.0226885
0.331497 0.219537 0.0216828
0.331995 0.219758 0.0206728
0.332495 0.219979 0.0196585
0.332998 0.220202 0.0186398
0.333502 0.220426 0.0176168
0.334009 0.22065 0.0165894
0.122708 0.116971 0.0912836
0.0849469 0.0975454 0.0730054
0.0849337 0.0975259 0.0725514
0.0849205 0.0975064 0.0720965
0.0874698 0.0987204 0.0698982
0.0865966 0.0982867 0.070022
0.0865851 0.0982678 0.0695589
0.0865735 0.0982488 0.0690947
0.0874271 0.0986461 0.068033
0.0874163 0.0986274 0.0675641
0.0865386 0.0981917 0.0676963
0.0873948 0.0985899 0.0666233
0.0848004 0.0973288 0.067958
0.0847869 0.0973088 0.0674931
0.0864917 0.0981149 0.0658174
0.0864799 0.0980956 0.0653451
0.0864681 0.0980763 0.0648717
0.0864563 0.0980569 0.0643974
0.0864444 0.0980374 0.0639219
0.0873077 0.0984384 0.0628185
0.0846917 0.097168 0.0642109
0.0864087 0.0979789 0.0624894
0.0838093 0.0967169 0.0638826
0.0863847 0.0979396 0.0615291
0.0863727 0.09792 0.0610473
0.0863607 0.0979002 0.0605645
0.0863486 0.0978804 0.0600806
0.0863365 0.0978606 0.0595956
0.0863244 0.0978408 0.0591096
0.0863122 0.0978209 0.0586225
0.0863 0.0978009 0.0581342
0.0862878 0.0977809 0.0576449
0.0845249 0.0969215 0.0584658
0.0845109 0.0969007 0.0579802
0.0844967 0.0968798 0.0574934
0.0844826 0.0968589 0.0570056
0.0844684 0.0968379 0.0565167
0.0853301 0.0972365 0.0553594
0.0853168 0.0972158 0.0548653
0.0844256 0.0967747 0.0550435
0.0844113 0.0967535 0.0545502
0.084397 0.0967323 0.0540558
0.0843826 0.096711 0.0535603
0.0843682 0.0966897 0.0530637
0.0861266 0.0975168 0.0511831
0.0843393 0.096647 0.0520672
0.0843248 0.0966255 0.0515672
0.0843102 0.096604 0.0510662
0.0842957 0.0965825 0.050564
0.084281 0.0965609 0.0500606
0.0842664 0.0965392 0.0495561
0.0842517 0.0965175 0.0490505
0.084237 0.0964958 0.0485438
0.0842223 0.096474 0.0480358
0.0842075 0.0964522 0.0475268
0.0841927 0.0964303 0.0470166
0.0841779 0.0964083 0.0465052
0.084163 0.0963863 0.0459926
0.0823813 0.0955206 0.046923
0.0823645 0.0954978 0.0464144
0.0823477 0.0954749 0.0459047
0.0823308 0.095452 0.0453938
0.0823139 0.095429 0.0448818
0.0822969 0.0954059 0.0443686
0.0822799 0.0953828 0.0438543
0.0840428 0.0962086 0.0418498
0.0840276 0.0961861 0.0413266
0.0840124 0.0961636 0.0408022
0.0839971 0.0961411 0.0402766
0.0821944 0.0952665 0.0412648
0.0821771 0.0952431 0.0407433
0.0839512 0.0960731 0.0386924
0.0821426 0.0951961 0.0396968
0.0821252 0.0951725 0.0391718
0.0821078 0.0951488 0.0386455
0.0820904 0.0951251 0.0381181
0.0820729 0.0951014 0.0375894
0.0820554 0.0950776 0.0370595
0.0820379 0.0950537 0.0365283
0.083827 0.0958895 0.0344137
0.0838113 0.0958663 0.0338732
0.0837956 0.0958431 0.0333315
0.0837798 0.0958198 0.0327885
0.0837641 0.0957965 0.0322442
0.0819317 0.0949094 0.0333156
0.0837324 0.0957496 0.0311518
0.0837164 0.0957261 0.0306037
0.0837005 0.0957025 0.0300542
0.0836845 0.0956789 0.0295035
0.0836685 0.0956552 0.0289515
0.0836524 0.0956314 0.0283982
0.0836364 0.0956076 0.0278435
0.0836202 0.0955838 0.0272876
0.0836041 0.0955599 0.0267303
0.0835878 0.0955359 0.0261717
0.0835716 0.0955119 0.0256118
0.0835553 0.0954878 0.0250505
0.083539 0.0954637 0.0244879
0.0835226 0.0954395 0.0239239
0.0835062 0.0954152 0.0233587
0.0816413 0.0945145 0.0245247
0.0798073 0.0936288 0.0256714
0.0834568 0.0953421 0.0216546
0.0834402 0.0953176 0.0210839
0.0815669 0.0944134 0.0222746
0.083407 0.0952685 0.0199383
0.0815295 0.0943625 0.0211415
0.0815107 0.094337 0.0205729
0.0814919 0.0943114 0.020003
0.081473 0.0942857 0.0194317
0.0814541 0.09426 0.018859
0.0833063 0.0951196 0.0164681
0.0823482 0.0946493 0.0168016
0.081397 0.0941825 0.0171326
0.0795366 0.0932858 0.0183594
0.0813588 0.0941305 0.0159748
0.0822758 0.0945469 0.0144702
0.0813203 0.0940782 0.0148114
0.0822394 0.0944953 0.0132959
0.0822211 0.0944695 0.0127067
0.0812623 0.0939993 0.0130556
0.0812429 0.0939729 0.0124675
0.0812234 0.0939464 0.0118779
0.0812039 0.0939199 0.011287
0.0811843 0.0938933 0.0106946
0.079301 0.0929871 0.0119926
0.0802076 0.0933975 0.0104601
0.0792574 0.0929319 0.0108168
0.080166 0.093343 0.00927326
0.0810857 0.0937592 0.00771066
0.0810659 0.0937322 0.00710948
0.081046 0.0937052 0.00650682
0.0791477 0.0927929 0.00785205
0.0791256 0.0927648 0.00725475
0.0809859 0.0936235 0.00468989
0.0809658 0.0935962 0.00408125
0.0809457 0.0935688 0.0034711
0.0809255 0.0935413 0.00285944
0.0809052 0.0935138 0.00224626
0.0789918 0.0925953 0.00364009
0.0770374 0.0916043 0.00320331
0.0770126 0.0915747 0.00259815
0.329361 0.222532 0.0226885
0.329854 0.222759 0.0216828
0.330349 0.222987 0.0206728
0.330846 0.223216 0.0196585
0.331345 0.223446 0.0186398
0.331847 0.223677 0.0176168
0.33235 0.223909 0.0165894
0.332856 0.224141 0.0155576
0.122555 0.117216 0.0912836
0.0850756 0.0972515 0.0730054
0.0850627 0.0972318 0.0725514
0.0850497 0.0972121 0.0720965
0.0875814 0.0984625 0.0698982
0.0841894 0.0967561 0.0717572
0.0841756 0.0967359 0.0713019
0.0841617 0.0967157 0.0708456
0.0875398 0.0983876 0.068033
0.0875293 0.0983688 0.0675641
0.0875188 0.0983499 0.0670943
0.0866465 0.0979012 0.0672281
0.0849322 0.0970329 0.067958
0.0866236 0.0978625 0.0662886
0.0866121 0.0978431 0.0658174
0.0840496 0.0965522 0.0671602
0.0865891 0.0978041 0.0648717
0.0840213 0.0965109 0.0662288
0.0865659 0.097765 0.0639219
0.0865543 0.0977453 0.0634455
0.0848258 0.0968705 0.0642109
