-0.922114 0.185202 -0.262644
-1.7106 -0.418062 -2.06831
-1.72424 -0.431492 -2.09879
-1.73836 -0.445385 -2.13032
-1.69926 -0.418122 -2.04009
-1.71256 -0.431402 -2.06975
-1.72632 -0.445134 -2.10043
-1.68817 -0.418181 -2.01249
-1.70114 -0.431313 -2.04137
-1.71455 -0.444888 -2.07121
-1.72841 -0.458928 -2.10208
-0.922322 0.182856 -0.262556
-0.921875 0.183015 -0.261485
-1.08245 0.0532258 -0.627417
-0.913113 0.189718 -0.241419
-0.913121 0.189543 -0.241393
-0.92195 0.182154 -0.261448
-0.912482 0.189728 -0.239853
-0.912978 0.189152 -0.240936
-0.921087 0.182265 -0.259331
-0.921105 0.182051 -0.25932
-0.921122 0.181837 -0.259308
-0.912516 0.18886 -0.239713
-0.921616 0.181022 -0.260325
-0.920501 0.181764 -0.257743
-1.11738 0.0142084 -0.704242
-0.916037 0.185177 -0.24752
-0.915582 0.185384 -0.246442
-0.915685 0.185114 -0.246629
-0.920585 0.180696 -0.257677
-0.91608 0.184407 -0.247429
-0.915997 0.184295 -0.247193
-0.916102 0.184019 -0.247384
-0.916113 0.183824 -0.247361
-0.914831 0.184771 -0.244417
-0.914751 0.184662 -0.244188
-0.914315 0.184869 -0.243158
-0.91578 0.18338 -0.246417
-0.91579 0.183186 -0.246393
-1.02702 0.0827542 -0.497155
-1.02742 0.0817942 -0.497903
-1.02588 0.0825939 -0.494278
-1.02627 0.0816386 -0.495013
-1.02475 0.0824354 -0.491432
-1.02514 0.0814848 -0.492154
-1.02364 0.0822785 -0.488617
-1.02402 0.0813325 -0.489326
-1.0244 0.0803805 -0.490039
-1.02291 0.081182 -0.486528
-1.02144 0.0819698 -0.483077
-1.02181 0.081033 -0.48376
-1.02219 0.0800902 -0.484448
-1.02073 0.0808857 -0.481022
-1.0211 0.0799474 -0.481698
-0.910201 0.185535 -0.233095
-0.91485 0.180896 -0.243464
-0.915986 0.179613 -0.245957
-0.915054 0.180324 -0.243823
-0.915064 0.180126 -0.243797
-0.916212 0.178816 -0.246315
-0.916224 0.178611 -0.246291
-0.916235 0.178406 -0.246266
-1.00014 0.0953185 -0.433531
-0.999034 0.0958963 -0.430934
-0.999294 0.0951239 -0.431381
-0.998201 0.0957005 -0.428812
-0.997788 0.0956033 -0.427758
-0.998715 0.0941576 -0.429693
-0.997629 0.0947402 -0.427141
-0.996558 0.0953144 -0.424626
-0.995503 0.0958802 -0.422147
-0.995748 0.0951239 -0.422561
-0.997311 0.0930117 -0.425903
-0.996242 0.093599 -0.423395
-0.996491 0.0928303 -0.423816
-0.996083 0.0927402 -0.422779
-0.994389 0.0939936 -0.418889
-0.995274 0.0925612 -0.42072
-0.994232 0.093145 -0.418278
-0.994472 0.0923838 -0.41868
-0.995361 0.0909343 -0.420516
-0.993047 0.0928775 -0.415263
-0.994556 0.0907638 -0.41847
-0.994799 0.0899916 -0.418875
-0.992499 0.0919473 -0.413659
-0.993998 0.0898256 -0.41684
-0.994239 0.0890523 -0.41724
-0.993205 0.0896611 -0.414824
-0.993442 0.0888909 -0.415216
-0.99118 0.0908529 -0.410095
-0.991409 0.0900968 -0.410469
-0.991023 0.0900151 -0.409489
-0.990639 0.0899338 -0.408513
-0.992103 0.087804 -0.411604
-0.992337 0.0870315 -0.411986
-0.990101 0.0890179 -0.406938
-0.991555 0.0868805 -0.410003
-0.991787 0.0861069 -0.41038
-0.989564 0.0881052 -0.405367
-0.991009 0.0859603 -0.408407
-0.988809 0.0879523 -0.403449
-0.990238 0.085815 -0.406452
-0.988061 0.0878006 -0.401549
-0.989474 0.085671 -0.404514
-0.987905 0.0869733 -0.400948
-0.988717 0.0855282 -0.402593
-0.987749 0.0861452 -0.400346
-0.985646 0.0880946 -0.395619
-0.985854 0.0873536 -0.395945
-0.986063 0.0866088 -0.396272
-0.983459 0.0891808 -0.390457
-0.983108 0.0891048 -0.389566
-0.983306 0.0883796 -0.389871
-0.983505 0.0876507 -0.390177
-0.983704 0.0869181 -0.390484
-0.982803 0.0875053 -0.388393
-0.983 0.0867754 -0.388695
-0.981036 0.088656 -0.384295
-0.982302 0.0866339 -0.386921
-0.980357 0.0885089 -0.382568
-0.979499 0.0890715 -0.38058
-0.979683 0.0883631 -0.380855
-0.980922 0.0863545 -0.383418
-0.979015 0.0882184 -0.379156
-0.979198 0.087509 -0.379427
-0.978353 0.0880749 -0.377471
-0.978533 0.0873681 -0.377737
-0.977696 0.0879326 -0.3758
-0.977874 0.0872284 -0.37606
-0.980125 0.0839088 -0.380803
-0.980313 0.0831779 -0.381082
-0.977396 0.0863846 -0.374654
-0.977573 0.085676 -0.374912
-0.976745 0.0862497 -0.373
-0.97692 0.0855437 -0.373253
-0.977096 0.0848342 -0.373507
-0.977273 0.0841212 -0.373763
-0.979515 0.080731 -0.378465
-0.97662 0.0839951 -0.372107
-0.976795 0.0832813 -0.372359
-0.976971 0.0825639 -0.372611
-0.979209 0.0791382 -0.377294
-0.976319 0.0824441 -0.370959
-0.976494 0.0817258 -0.371208
-0.978718 0.0782884 -0.375853
-0.978903 0.0775428 -0.37612
-0.979088 0.0767934 -0.376388
-0.979275 0.0760402 -0.376658
-0.978412 0.076695 -0.37468
-0.978596 0.0759447 -0.374944
-0.978781 0.0751907 -0.37521
-0.97589 0.0786075 -0.368901
-0.976064 0.0778768 -0.369146
-0.976239 0.0771425 -0.369392
-0.978473 0.0735853 -0.37403
-0.978658 0.0728228 -0.374294
-0.975761 0.0763094 -0.367987
-0.975936 0.0755706 -0.36823
-0.976111 0.0748282 -0.368475
-0.978349 0.07121 -0.373109
-0.97749 0.0718989 -0.371149
-0.977672 0.0711347 -0.371406
-0.977855 0.0703666 -0.371663
-0.974981 0.073911 -0.365427
-0.975153 0.073167 -0.365663
-0.977363 0.0695261 -0.370222
-0.977546 0.0687533 -0.370477
-0.974676 0.0723405 -0.364265
-0.974848 0.0715919 -0.364499
-0.977054 0.0679148 -0.369037
-0.977236 0.0671372 -0.369289
-0.977419 0.0663558 -0.369542
-0.977603 0.0655703 -0.369796
-0.912943 0.159269 -0.233138
-0.912579 0.159581 -0.232313
-0.975062 0.0677326 -0.364034
-0.975236 0.0669644 -0.36427
-0.975412 0.0661923 -0.364507
-0.975588 0.0654164 -0.364746
-0.974754 0.0661387 -0.362857
-0.974928 0.0653659 -0.363091
-0.974102 0.0660856 -0.361221
-0.974274 0.0653159 -0.361449
-0.973455 0.0660329 -0.359598
-0.973624 0.0652663 -0.359822
-0.972814 0.0659807 -0.357989
-0.972981 0.0652171 -0.358208
-0.972177 0.0659289 -0.356393
-0.972342 0.0651683 -0.356607
-0.971546 0.0658775 -0.35481
-0.971709 0.0651199 -0.355019
-0.971872 0.0643585 -0.355229
-0.971081 0.0650719 -0.353444
-0.971242 0.0643136 -0.353649
-0.970458 0.0650243 -0.351882
-0.970617 0.0642689 -0.352083
-0.96984 0.064977 -0.350333
-0.969997 0.0642247 -0.350529
-0.970154 0.0634686 -0.350726
-0.969382 0.0641808 -0.348988
-0.969537 0.0634277 -0.34918
-0.968772 0.0641372 -0.347459
-0.968468 0.0641156 -0.346699
-0.968166 0.064094 -0.345943
-0.968318 0.0633468 -0.346126
-0.967566 0.0640512 -0.344438
-0.967715 0.0633068 -0.344617
-0.967865 0.0625589 -0.344797
-0.966235 0.0647016 -0.341295
-0.96638 0.0639665 -0.341465
-0.966525 0.0632279 -0.341636
-0.965794 0.0639246 -0.339996
-0.965071 0.0646127 -0.338378
-0.965212 0.0638831 -0.338539
-0.966225 0.0617068 -0.340498
-0.966371 0.0609604 -0.340667
-0.962271 0.0672804 -0.332101
-0.961593 0.0679271 -0.330579
-0.961721 0.0672274 -0.330718
-0.96185 0.0665245 -0.330858
-0.96198 0.0658183 -0.330998
-0.96211 0.065109 -0.331139
-0.96143 0.0657708 -0.329618
-0.961558 0.0650641 -0.329755
-0.961687 0.064354 -0.329893
-0.961011 0.0650195 -0.328383
-0.961139 0.0643121 -0.328517
-0.961266 0.0636015 -0.328652
-0.961395 0.0628876 -0.328787
-0.96072 0.0635624 -0.327282
-0.960847 0.0628512 -0.327414
-0.960574 0.0628331 -0.326731
-0.960303 0.0628151 -0.326051
-0.960428 0.0621032 -0.32618
-0.960554 0.0613881 -0.326309
-0.959887 0.06207 -0.324824
-0.960011 0.0613576 -0.32495
-0.959349 0.0620371 -0.323479
-0.959472 0.0613273 -0.323601
-0.959595 0.0606142 -0.323723
-0.958937 0.0612972 -0.322262
-0.959058 0.0605868 -0.322381
-0.958406 0.0612674 -0.320933
-0.957761 0.0619398 -0.319503
-0.957879 0.0612377 -0.319615
-0.957997 0.0605325 -0.319727
-0.958116 0.0598241 -0.31984
-0.957472 0.0605057 -0.318415
-0.956836 0.0611792 -0.317007
-0.957707 0.0590909 -0.318634
-0.957826 0.0583787 -0.318745
-0.955698 0.0618134 -0.314339
-0.954723 0.0631344 -0.312255
-0.957039 0.0583506 -0.31678
-0.956778 0.0583413 -0.31613
-0.956147 0.0590271 -0.314736
-0.95701 0.0569179 -0.316338
-0.961497 0.0479856 -0.325194
-0.96163 0.0472119 -0.325325
-0.959711 0.0503151 -0.321354
-0.960651 0.0480175 -0.323099
-0.962457 0.0440615 -0.326571
-0.963458 0.0416205 -0.32843
-0.963599 0.0408115 -0.328573
-0.965529 0.0365687 -0.332278
-0.964773 0.0374707 -0.330631
-0.965373 0.035765 -0.331682
-0.965522 0.0349224 -0.331836
-0.965672 0.0340755 -0.331991
-0.965365 0.0341158 -0.331237
-0.976714 0.0114098 -0.353606
-0.978061 0.00815035 -0.356118
-0.985728 -0.00752986 -0.371143
-0.984653 -0.00608675 -0.368839
-0.987569 -0.0125144 -0.374435
-0.989214 -0.0164584 -0.377509
-0.918615 0.123016 -0.237889
-1.0342 -0.107423 -0.465927
-1.05226 -0.144451 -0.501306
-1.0876 -0.216284 -0.570681
-0.918556 0.121931 -0.237462
-0.918444 0.121855 -0.237164
-0.918461 0.121517 -0.23712
-0.916722 0.124737 -0.233625
-0.915783 0.126351 -0.231706
-0.917998 0.121551 -0.235977
-0.918272 0.120689 -0.236436
-0.918032 0.120877 -0.235887
-0.917793 0.121064 -0.235342
-0.920206 0.11579 -0.239984
-0.918867 0.11824 -0.237284
-0.914053 0.127903 -0.227803
-0.921122 0.112935 -0.241524
-0.914296 0.126831 -0.228131
-0.914531 0.126055 -0.228515
-0.914542 0.125744 -0.228464
-0.918711 0.116698 -0.236499
-0.91873 0.116347 -0.236454
-0.918748 0.115994 -0.236408
-0.918633 0.115923 -0.236105
-0.922196 0.108039 -0.242933
-0.921326 0.109557 -0.24116
-0.920197 0.111638 -0.238888
-0.912252 0.128333 -0.223434
-0.922295 0.106478 -0.242776
-0.92232 0.106085 -0.242736
-0.923596 0.102988 -0.245111
-0.920445 0.109466 -0.238944
-0.920466 0.109089 -0.2389
-0.923359 0.102456 -0.244384
-0.914038 0.122468 -0.226363
-0.913826 0.12264 -0.225879
-0.914975 0.119822 -0.228011
-0.92379 0.100104 -0.24485
-0.923818 0.099687 -0.244812
-0.923846 0.0992687 -0.244774
-0.923874 0.0988492 -0.244736
-0.922006 0.102653 -0.24107
-0.919124 0.108742 -0.235473
-0.922992 0.0997507 -0.242773
-0.915312 0.116642 -0.22803
-0.920605 0.104416 -0.23804
-0.920774 0.103693 -0.238273
-0.925428 0.0928113 -0.247042
-0.924103 0.0954466 -0.244427
-0.925492 0.0919204 -0.24697
-0.925524 0.0914728 -0.246934
-0.923531 0.0956585 -0.243059
-0.925588 0.0905735 -0.246862
-0.92562 0.0901216 -0.246825
-0.919644 0.103538 -0.235422
-0.92348 0.0943177 -0.242584
-0.925717 0.0887575 -0.246716
-0.913612 0.116549 -0.223776
-0.913623 0.116219 -0.223717
-0.919461 0.10225 -0.234636
-0.922172 0.0955454 -0.239648
-0.92483 0.0889288 -0.244553
-0.924861 0.0884758 -0.244513
-0.924892 0.0880213 -0.244473
-0.936036 0.0612053 -0.265271
-0.936094 0.0606122 -0.265263
-0.936647 0.0588366 -0.26618
-0.936707 0.0582325 -0.266174
-0.936767 0.0576261 -0.266167
-0.93708 0.0564111 -0.266631
-0.937396 0.0551828 -0.2671
-0.937715 0.0539409 -0.267574
-0.938038 0.0526851 -0.268053
-0.938365 0.0514154 -0.268538
-0.938962 0.0494806 -0.269524
-0.939299 0.0481736 -0.270024
-0.939914 0.0461788 -0.27104
-0.939984 0.0455144 -0.271042
-0.941179 0.0420743 -0.273129
-0.942417 0.0385138 -0.275289
-0.942495 0.0378086 -0.2753
-0.943475 0.0348597 -0.276978
-0.944483 0.0318279 -0.278702
-0.9452 0.0295084 -0.279886
-0.945931 0.0271412 -0.281095
-0.946678 0.0247247 -0.282329
-0.94744 0.0222575 -0.283589
-0.920659 0.0893074 -0.234275
-0.925701 0.0761717 -0.243427
-0.925735 0.0756773 -0.243384
-0.925405 0.0761088 -0.242673
-0.925077 0.0765365 -0.241968
-0.925471 0.0751209 -0.242583
-0.925504 0.0746244 -0.242538
-0.925538 0.0741264 -0.242493
-0.925208 0.0745657 -0.241784
-0.924701 0.075463 -0.240757
-0.924912 0.0745072 -0.241035
-0.924945 0.0740117 -0.240987
-0.92534 0.0725686 -0.241598
-0.925373 0.0720652 -0.241551
-0.929314 0.0613205 -0.24858
-0.935286 0.0451815 -0.259271
-0.935344 0.0445386 -0.25925
-0.937468 0.0384387 -0.262958
-0.933036 0.0496724 -0.254832
-0.972539 -0.0557222 -0.325896
-0.970422 -0.0508412 -0.32189
-0.943539 0.020195 -0.273352
-0.976867 -0.0695829 -0.333083
-0.974574 -0.0642209 -0.328763
-0.974787 -0.0655741 -0.328945
-0.971396 -0.057204 -0.32267
-0.972775 -0.0616953 -0.324942
-0.972981 -0.0630229 -0.32511
-0.974407 -0.0676768 -0.327457
-1.00673 -0.156609 -0.384896
-1.00926 -0.164555 -0.389144
-1.01189 -0.17281 -0.393557
-1.01233 -0.1751 -0.394075
-1.01278 -0.177408 -0.394597
-1.01439 -0.182922 -0.397169
-1.01485 -0.185301 -0.397713
-1.01532 -0.187702 -0.398262
-1.01462 -0.18684 -0.396731
-1.01509 -0.189248 -0.397276
-1.01556 -0.191678 -0.397826
-1.01604 -0.194128 -0.39838
-1.01652 -0.196599 -0.398939
-1.01701 -0.199093 -0.399503
-1.0175 -0.201608 -0.400072
-1.01799 -0.204145 -0.400646
-1.01604 -0.19975 -0.39694
-1.00959 -0.182474 -0.38535
-1.00784 -0.178549 -0.382007
-1.00826 -0.180839 -0.382472
-1.01801 -0.209926 -0.399195
-1.01851 -0.212526 -0.399771
-1.01901 -0.21515 -0.400352
-1.01952 -0.217797 -0.400938
-1.02004 -0.220468 -0.40153
-1.02056 -0.223164 -0.402127
-1.02108 -0.225884 -0.40273
-1.02161 -0.228628 -0.403338
-1.02215 -0.231398 -0.403951
-1.02268 -0.234194 -0.404571
-1.02323 -0.237015 -0.405196
-1.02378 -0.239863 -0.405826
-1.02433 -0.242737 -0.406463
-1.02489 -0.245639 -0.407106
-1.02546 -0.248568 -0.407755
-1.02603 -0.251524 -0.40841
-1.0266 -0.254509 -0.409071
-1.02718 -0.257523 -0.409738
-1.02777 -0.260565 -0.410412
-1.02836 -0.263637 -0.411093
-1.02896 -0.266739 -0.41178
-1.02956 -0.269871 -0.412474
-1.03017 -0.273033 -0.413174
-1.03079 -0.276227 -0.413882
-1.03141 -0.279453 -0.414597
-1.03358 -0.287429 -0.417923
-1.03422 -0.290774 -0.418672
-1.03488 -0.294152 -0.419428
-1.03396 -0.292682 -0.417527
-1.03462 -0.296073 -0.418278
-1.03528 -0.299499 -0.419037
-1.03594 -0.30296 -0.419804
-1.03662 -0.306457 -0.420579
-1.0373 -0.30999 -0.421361
-1.03799 -0.31356 -0.422152
-1.03868 -0.317168 -0.422951
-1.03939 -0.320813 -0.423759
-1.0401 -0.324497 -0.424575
-1.04081 -0.32822 -0.4254
-1.04154 -0.331984 -0.426233
-1.03885 -0.324849 -0.421377
-1.02697 -0.28828 -0.401279
-1.04027 -0.332312 -0.422996
-1.03928 -0.330598 -0.420983
-1.04 -0.334364 -0.421791
-1.04247 -0.343811 -0.425489
-1.04321 -0.347727 -0.426338
-1.03874 -0.334683 -0.418578
-1.04118 -0.344101 -0.422213
-1.04192 -0.348004 -0.423042
-0.884475 0.32536 -0.34161
-0.895214 0.317663 -0.361135
-0.885992 0.323638 -0.344415
-0.848157 0.349456 -0.275721
-0.851515 0.346898 -0.281836
-0.868644 0.334707 -0.312974
-0.89822 0.313681 -0.366734
-0.849379 0.347689 -0.278008
-0.847514 0.348776 -0.274634
-0.914712 0.300798 -0.396796
-0.855221 0.342821 -0.288678
-0.850002 0.34631 -0.279206
-0.854484 0.342845 -0.287375
-0.851999 0.344391 -0.282874
-1.82533 -0.363223 -2.05324
-0.852341 0.343653 -0.28353
-1.79316 -0.346461 -1.9952
-0.847445 0.346765 -0.274659
-0.847438 0.346539 -0.274662
-1.77789 -0.34511 -1.96814
-0.850956 0.343448 -0.2811
-1.80975 -0.375596 -2.02661
-1.76296 -0.34379 -1.94168
-1.77819 -0.358583 -1.96965
-1.02683 0.208857 -0.601485
-1.74836 -0.342499 -1.9158
-1.76318 -0.357106 -1.94303
-1.7785 -0.372204 -1.97117
-1.09443 0.153253 -0.724895
-0.84383 0.346751 -0.268274
-0.845244 0.345422 -0.270868
-1.03206 0.198878 -0.611432
-0.843517 0.346315 -0.267753
-0.843228 0.346315 -0.267243
-0.832183 0.354852 -0.247116
-0.832549 0.35437 -0.247797
-0.832334 0.35435 -0.24742
-0.842361 0.3461 -0.265727
-0.842348 0.345884 -0.265719
-0.842606 0.345447 -0.266207
-0.842867 0.345006 -0.2667
-0.831467 0.354097 -0.245906
-0.835936 0.350236 -0.25408
-0.842012 0.345019 -0.265189
-0.84094 0.345678 -0.263247
-0.835442 0.350024 -0.253222
-0.840911 0.34525 -0.263227
-0.841158 0.344815 -0.263696
-0.833894 0.350704 -0.25044
-0.833875 0.350518 -0.250418
-0.835347 0.349063 -0.253125
-0.83511 0.349056 -0.252707
-0.835309 0.348676 -0.253086
-0.833795 0.349769 -0.250331
-0.835491 0.348098 -0.25345
-0.835472 0.347902 -0.25343
-0.827098 0.354982 -0.238127
-0.833714 0.349013 -0.250244
-0.833486 0.349006 -0.249841
-0.960447 0.236839 -0.482206
-0.960791 0.235861 -0.482885
-0.961137 0.234877 -0.483569
-0.961486 0.233887 -0.484257
-0.961837 0.23289 -0.484949
-0.959985 0.233872 -0.481606
-0.960329 0.232881 -0.482286
-0.832298 0.34841 -0.247787
-0.835242 0.34552 -0.253195
-0.835 0.345522 -0.252768
-0.83498 0.345322 -0.252748
-0.83303 0.346902 -0.249189
-0.827913 0.35143 -0.239822
-0.828061 0.351099 -0.240109
-0.834025 0.345333 -0.25106
-0.952717 0.233802 -0.468774
-0.953029 0.232836 -0.469395
-0.953343 0.231865 -0.470021
-0.931894 0.251549 -0.430711
-0.932112 0.250745 -0.431154
-0.930743 0.251455 -0.428685
-0.930957 0.250653 -0.429121
-0.929603 0.251361 -0.426679
-0.929813 0.250563 -0.427107
-0.928474 0.251268 -0.424691
-0.928679 0.250474 -0.425112
-0.927355 0.251176 -0.422722
-0.927556 0.250385 -0.423135
-0.927759 0.24959 -0.42355
-0.924955 0.251775 -0.418439
-0.925147 0.250995 -0.418836
-0.925341 0.25021 -0.419235
-0.924059 0.250905 -0.41692
-0.924249 0.250124 -0.417312
-0.923706 0.250081 -0.416356
-0.923166 0.250039 -0.415405
-0.923353 0.249257 -0.415793
-0.922093 0.249954 -0.413517
-0.922276 0.249175 -0.413897
-0.92392 0.246885 -0.416967
-0.921209 0.249095 -0.412018
-0.92139 0.248315 -0.412394
-0.92302 0.246018 -0.415439
-0.920329 0.248238 -0.410525
-0.921938 0.245951 -0.413533
-0.922122 0.245155 -0.413916
-0.919451 0.247385 -0.409037
-0.921046 0.245092 -0.412021
-0.919101 0.24657 -0.408477
-0.918577 0.246535 -0.407555
-0.920158 0.244235 -0.410514
-0.920337 0.243437 -0.410888
-0.917706 0.245688 -0.406078
-0.917876 0.244905 -0.406435
-0.916672 0.245624 -0.404256
-0.916838 0.244844 -0.404606
-0.917005 0.244061 -0.404959
-0.915809 0.244784 -0.402794
-0.917343 0.24248 -0.405669
-0.91479 0.244724 -0.400997
-0.916304 0.24243 -0.403837
-0.915111 0.243166 -0.401678
-0.913936 0.243891 -0.39955
-0.912777 0.244606 -0.397451
-0.912931 0.243835 -0.397778
-0.910507 0.246007 -0.393339
-0.910652 0.24525 -0.393652
-0.909537 0.245943 -0.391631
-0.908436 0.246627 -0.389638
-0.907351 0.247301 -0.387671
-0.906279 0.247966 -0.385731
-0.907622 0.245818 -0.388258
-0.905351 0.247896 -0.384096
-0.90548 0.247166 -0.384377
-0.90443 0.247826 -0.382475
-0.904556 0.247099 -0.38275
-0.90587 0.244953 -0.385226
-0.90364 0.247033 -0.381137
-0.902611 0.247689 -0.379272
-0.902731 0.246967 -0.379537
-0.90228 0.246935 -0.378742
-0.904138 0.244099 -0.38223
-0.901949 0.24618 -0.378212
-0.903219 0.244045 -0.38061
-0.903342 0.243305 -0.380882
-0.901168 0.245395 -0.376891
-0.900163 0.246057 -0.375068
-0.902549 0.242514 -0.379538
-0.899282 0.245996 -0.373515
-0.899393 0.245279 -0.373763
-0.901758 0.241725 -0.378198
-0.901877 0.24098 -0.378463
-0.898624 0.244503 -0.372462
-0.90097 0.240939 -0.376863
-0.901087 0.240194 -0.377124
-0.901205 0.239444 -0.377387
-0.897966 0.243008 -0.371408
-0.900299 0.23941 -0.37579
-0.900415 0.23866 -0.376049
-0.900532 0.237906 -0.376309
-0.897306 0.24151 -0.370351
-0.897413 0.240779 -0.370592
-0.899742 0.237123 -0.374972
-0.899857 0.236365 -0.37523
-0.896646 0.240009 -0.369294
-0.896751 0.239275 -0.369532
-0.899068 0.235584 -0.373893
-0.895881 0.239242 -0.367999
-0.895984 0.238507 -0.368234
-0.896087 0.237768 -0.36847
-0.896191 0.237025 -0.368707
-0.89522 0.237741 -0.36694
-0.898617 0.232504 -0.373319
-0.895423 0.236258 -0.367406
-0.897717 0.232498 -0.37173
-0.897827 0.231726 -0.37198
-0.897938 0.230951 -0.372232
-0.894758 0.234747 -0.366341
-0.897039 0.230952 -0.370645
-0.897148 0.230175 -0.370893
-0.897257 0.229395 -0.371142
-0.894091 0.233232 -0.365273
-0.896361 0.229403 -0.369559
-0.896468 0.228622 -0.369805
-0.893327 0.232472 -0.363979
-0.892377 0.233216 -0.362246
-0.895681 0.227851 -0.368472
-0.895787 0.227065 -0.368714
-0.895892 0.226276 -0.368958
-0.895999 0.225482 -0.369204
-0.891806 0.230958 -0.361401
-0.891899 0.2302 -0.36162
-0.895208 0.224712 -0.367864
-0.892086 0.228675 -0.362062
-0.89218 0.227906 -0.362284
-0.897218 0.219788 -0.37177
-0.896758 0.219813 -0.370956
-0.894626 0.222343 -0.367007
-0.89473 0.221537 -0.367249
-0.894834 0.220726 -0.367491
-0.894938 0.21991 -0.367735
-0.895043 0.219091 -0.36798
-0.895149 0.218268 -0.368226
-0.895255 0.21744 -0.368474
-0.895362 0.216608 -0.368722
-0.895469 0.215771 -0.368973
-0.895577 0.214931 -0.369224
-0.825173 0.323606 -0.237001
-0.824954 0.32367 -0.236609
-0.824923 0.323442 -0.236572
-0.824892 0.323213 -0.236534
-0.883703 0.23024 -0.347142
-0.884712 0.228024 -0.349084
-0.883844 0.228775 -0.347497
-0.883915 0.228037 -0.347676
-0.883986 0.227296 -0.347856
-0.884058 0.226551 -0.348036
-0.88413 0.225803 -0.348218
-0.884202 0.225051 -0.3484
-0.884275 0.224295 -0.348583
-0.884348 0.223536 -0.348767
-0.884421 0.222773 -0.348952
-0.883544 0.223567 -0.347346
-0.883615 0.222807 -0.347526
-0.883687 0.222044 -0.347708
-0.883759 0.221277 -0.34789
-0.881043 0.225148 -0.342814
-0.882023 0.222874 -0.344709
-0.883025 0.220549 -0.346647
-0.824675 0.31813 -0.236519
-0.825624 0.31623 -0.238333
-0.825195 0.316656 -0.237544
-0.825163 0.316409 -0.237505
-0.825131 0.316162 -0.237467
-0.825099 0.315914 -0.237428
-0.825067 0.315666 -0.237389
-0.825035 0.315417 -0.237351
-0.825201 0.314824 -0.237687
-0.826818 0.311703 -0.240769
-0.824546 0.315353 -0.236491
-0.875749 0.225311 -0.333451
-0.876644 0.2231 -0.335193
-0.876697 0.222365 -0.335339
-0.8759 0.223132 -0.333876
-0.87595 0.222399 -0.334019
-0.875161 0.223163 -0.332568
-0.874793 0.223178 -0.331919
-0.875259 0.221699 -0.332848
-0.874475 0.222467 -0.331407
-0.8737 0.223224 -0.329984
-0.873745 0.2225 -0.330117
-0.873791 0.221772 -0.33025
-0.873021 0.222533 -0.328836
-0.873065 0.221808 -0.328965
-0.872704 0.221826 -0.328327
-0.872345 0.221844 -0.327691
-0.872387 0.221119 -0.327818
-0.87163 0.22188 -0.326426
-0.871671 0.221157 -0.326549
-0.870921 0.221915 -0.325171
-0.87096 0.221196 -0.325291
-0.870217 0.22195 -0.323925
-0.869484 0.222696 -0.322576
-0.869519 0.221985 -0.322689
-0.868792 0.222727 -0.321352
-0.868825 0.222019 -0.321462
-0.868859 0.221308 -0.321572
-0.868892 0.220594 -0.321683
-0.868926 0.219876 -0.321795
-0.86672 0.223518 -0.317635
-0.867115 0.222104 -0.318434
-0.867514 0.220673 -0.319244
-0.869061 0.216973 -0.322245
-0.869096 0.216238 -0.322359
-0.86913 0.215501 -0.322473
-0.8728 0.20752 -0.329534
-0.872845 0.206729 -0.32967
-0.87289 0.205934 -0.329807
-0.872936 0.205136 -0.329945
-0.873408 0.203472 -0.3309
-0.873455 0.20266 -0.331042
-0.875257 0.198271 -0.334543
-0.87576 0.196508 -0.335558
-0.877193 0.192826 -0.338357
-0.878196 0.190005 -0.340333
-0.885423 0.174309 -0.354235
-0.88551 0.173305 -0.35446
-0.885597 0.172296 -0.354687
-0.885684 0.171281 -0.354915
-0.890407 0.160544 -0.364035
-0.890513 0.159445 -0.364301
-0.890619 0.15834 -0.364569
-0.891961 0.154611 -0.367209
-0.90157 0.13327 -0.385728
-0.899549 0.136608 -0.381917
-0.82843 0.288052 -0.245331
-0.828396 0.287717 -0.245295
-1.04044 -0.170459 -0.653012
-0.828076 0.287591 -0.244738
-0.827791 0.2878 -0.244221
-0.828007 0.28692 -0.244665
-0.827847 0.286858 -0.244386
-0.825312 0.292019 -0.239536
-0.825275 0.291705 -0.239494
-0.827368 0.286673 -0.243555
-0.827333 0.286337 -0.243517
-0.827298 0.286001 -0.243479
-0.828272 0.283402 -0.245388
-0.82698 0.285879 -0.242927
-0.823515 0.293279 -0.23627
-0.823265 0.293455 -0.235816
-0.830004 0.277746 -0.248857
-0.830109 0.277057 -0.249093
-0.823363 0.292055 -0.236091
-0.82908 0.278517 -0.24717
-0.827224 0.282354 -0.243613
-0.830681 0.273916 -0.250331
-0.830647 0.273531 -0.250299
-0.82894 0.277048 -0.247029
-0.829869 0.274421 -0.248859
-0.829694 0.274369 -0.248555
-0.830224 0.272656 -0.249615
-0.83106 0.270206 -0.25127
-0.830442 0.271196 -0.250106
-0.830408 0.270803 -0.250073
-0.831556 0.267576 -0.252337
-0.831827 0.266436 -0.252897
-0.825308 0.281668 -0.240279
-0.830268 0.26922 -0.249942
-0.822315 0.288065 -0.234529
-0.827441 0.275146 -0.24452
-0.831658 0.264358 -0.252749
-0.830716 0.26617 -0.250954
-0.829802 0.267929 -0.249213
-0.831402 0.263477 -0.252361
-0.831214 0.263436 -0.252033
-0.829123 0.268146 -0.247997
-0.825649 0.276354 -0.241267
-0.823035 0.282465 -0.236206
-0.82582 0.275002 -0.241666
-0.825781 0.274636 -0.241624
-0.833574 0.254359 -0.256858
-0.832225 0.257257 -0.254266
-0.832191 0.256812 -0.254237
-0.832156 0.256365 -0.254209
-0.832122 0.255917 -0.25418
-0.832087 0.255468 -0.254151
-0.832052 0.255017 -0.254123
-0.827019 0.267609 -0.24432
-0.830411 0.258229 -0.25099
-0.83007 0.258592 -0.250362
-0.831912 0.2532 -0.254006
-0.820741 0.282244 -0.232171
-0.82603 0.267737 -0.242564
-0.82599 0.267346 -0.242522
-0.828409 0.260366 -0.2473
-0.830774 0.253478 -0.251976
-0.830737 0.253025 -0.251944
-0.8307 0.25257 -0.251912
-0.831626 0.249495 -0.25377
-0.840971 0.223405 -0.272165
-0.841171 0.222186 -0.272608
-0.841147 0.22158 -0.272608
-0.841122 0.220971 -0.272609
-0.841325 0.219727 -0.273058
-0.841531 0.21847 -0.273512
-0.841738 0.217199 -0.273971
-0.842184 0.215253 -0.274899
-0.842399 0.213945 -0.275373
-0.842857 0.21194 -0.276328
-0.842835 0.211285 -0.276336
-0.843303 0.209231 -0.277312
-0.844032 0.206418 -0.278803
-0.844522 0.20427 -0.279825
-0.845022 0.202079 -0.280866
-0.84634 0.197508 -0.283525
-0.846323 0.196779 -0.283549
-0.847419 0.192805 -0.285772
-0.847975 0.19038 -0.28693
-0.848543 0.187906 -0.288112
-0.849123 0.185379 -0.289319
-0.827072 0.249826 -0.245702
-0.825351 0.254361 -0.242334
-0.828632 0.24401 -0.24888
-0.828437 0.243993 -0.248536
-0.829335 0.24069 -0.250362
-0.828977 0.241154 -0.249696
-0.829253 0.239701 -0.25029
-0.829212 0.239205 -0.250253
-0.829171 0.238707 -0.250217
-0.828812 0.239183 -0.249547
-0.828455 0.239655 -0.248883
-0.828413 0.239161 -0.248844
-0.828371 0.238665 -0.248806
-0.828644 0.237185 -0.249395
-0.828602 0.236682 -0.249357
-0.859563 0.13887 -0.31113
-0.841196 0.195719 -0.27457
-0.829283 0.232603 -0.250856
-0.829077 0.232601 -0.250492
-0.856462 0.144629 -0.305236
-0.829993 0.22835 -0.252418
-0.828949 0.231029 -0.250381
-0.830252 0.22616 -0.253035
-0.828537 0.23103 -0.249653
-0.87001 0.0954886 -0.332726
-0.8781 0.0678682 -0.349016
-0.819302 0.259293 -0.231293
-0.870159 0.0913579 -0.333289
-0.883662 0.045513 -0.36046
-0.89633 0.00207391 -0.385983
-0.8965 -7.94709e-05 -0.386439
-0.896671 -0.00225019 -0.386899
-0.90052 -0.016781 -0.39475
-0.900714 -0.0191064 -0.395262
-0.901876 -0.0247195 -0.397721
-0.90208 -0.0271166 -0.398254
-0.902285 -0.0295342 -0.398792
-0.901509 -0.0286062 -0.397355
-0.902701 -0.0344319 -0.399882
-0.901917 -0.0334783 -0.398428
-0.902124 -0.0359459 -0.398972
-0.902332 -0.0384348 -0.39952
-0.902542 -0.0409454 -0.400073
-0.902754 -0.0434779 -0.400631
-0.902968 -0.0460326 -0.401194
-0.903184 -0.0486098 -0.401762
-0.901376 -0.0440132 -0.398236
-0.895844 -0.026089 -0.387166
-0.894212 -0.0219815 -0.383985
-0.902003 -0.0517292 -0.399902
-0.902215 -0.0543468 -0.400468
-0.90243 -0.0569877 -0.401038
-0.902647 -0.0596522 -0.401614
-0.902865 -0.0623406 -0.402194
-0.903085 -0.0650533 -0.40278
-0.903308 -0.0677905 -0.403371
-0.903532 -0.0705527 -0.403968
-0.903759 -0.0733401 -0.40457
-0.903987 -0.0761531 -0.405178
-0.904218 -0.0789921 -0.405791
-0.904451 -0.0818574 -0.40641
-0.904686 -0.0847494 -0.407035
-0.904923 -0.0876685 -0.407665
-0.905163 -0.090615 -0.408302
-0.905404 -0.0935893 -0.408944
-0.906782 -0.100948 -0.41191
-0.907036 -0.104027 -0.412582
-0.906143 -0.102683 -0.410908
-0.907551 -0.110275 -0.413945
-0.906648 -0.108893 -0.41225
-0.906904 -0.112043 -0.41293
-0.907162 -0.115223 -0.413617
-0.908612 -0.123141 -0.416752
-0.908884 -0.126438 -0.417471
-0.909159 -0.129768 -0.418197
-0.909436 -0.133131 -0.418931
-0.909716 -0.136528 -0.419672
-0.908768 -0.13498 -0.417884
-0.909045 -0.138389 -0.418621
-0.910574 -0.146928 -0.421941
-0.910866 -0.150467 -0.422713
-0.911161 -0.154042 -0.423493
-0.911459 -0.157654 -0.424281
-0.910473 -0.155966 -0.422418
-0.910767 -0.159592 -0.423201
-0.911065 -0.163255 -0.423992
-0.910075 -0.161532 -0.422118
-0.910369 -0.165209 -0.422905
-0.911977 -0.17448 -0.426416
-0.912288 -0.178301 -0.427242
-0.912602 -0.182164 -0.428076
-0.906469 -0.158368 -0.41552
-0.91324 -0.190016 -0.429772
-0.913564 -0.194007 -0.430634
-0.912519 -0.192069 -0.428649
-0.91284 -0.196074 -0.429505
-0.911798 -0.194125 -0.427523
-0.913492 -0.204217 -0.431247
-0.913823 -0.208357 -0.432132
-0.907436 -0.182637 -0.418987
-0.86895 0.350955 -0.341422
-0.869712 0.350084 -0.342796
-0.869043 0.350201 -0.341664
-0.831725 0.375869 -0.276348
-0.835331 0.373115 -0.28269
-0.851163 0.361738 -0.310456
-0.840483 0.368991 -0.291774
-0.897275 0.328428 -0.391348
-0.840478 0.368475 -0.291825
-1.81474 -0.32938 -2.00022
-0.840473 0.367957 -0.291876
-0.838535 0.369096 -0.288505
-1.79861 -0.327807 -1.97308
-1.81491 -0.343032 -2.00207
-1.83178 -0.358784 -2.03207
-1.78284 -0.326269 -1.94654
-1.79869 -0.341295 -1.97476
-1.81509 -0.356836 -2.00394
-1.76742 -0.324765 -1.92059
-0.830894 0.372743 -0.275315
-1.79877 -0.354932 -1.97645
-1.81526 -0.370795 -2.00583
-0.831968 0.371215 -0.277285
-1.78283 -0.353071 -1.94959
-1.79886 -0.368721 -1.97817
-1.75216 -0.336313 -1.89641
-1.76724 -0.351252 -1.92332
-1.78282 -0.366693 -1.95113
-0.82689 0.373701 -0.268514
-1.186 0.0928358 -0.900929
-1.76715 -0.364711 -1.92471
-1.01954 0.221163 -0.60799
-0.826963 0.372722 -0.268747
-0.826662 0.372729 -0.268243
-0.826928 0.372285 -0.268739
-0.815597 0.381136 -0.248786
-0.815374 0.381121 -0.248414
-0.825338 0.372868 -0.266015
-0.826715 0.37152 -0.26847
-0.825852 0.371988 -0.266974
-0.813732 0.381683 -0.245605
-0.814465 0.380888 -0.246921
-0.814247 0.380873 -0.246558
-0.818776 0.376922 -0.254581
-0.824124 0.372257 -0.264054
-0.824103 0.372043 -0.264045
-0.818817 0.376253 -0.254726
-0.824331 0.371389 -0.2645
-0.816911 0.377442 -0.251404
-0.81852 0.375866 -0.254274
-0.818608 0.375577 -0.254454
-0.818137 0.375766 -0.253645
-0.817891 0.375765 -0.253235
-0.816998 0.376324 -0.251678
-0.818063 0.375188 -0.253588
-0.818038 0.374995 -0.253569
-0.817354 0.375379 -0.252381
-0.810078 0.381564 -0.239511
-0.817742 0.374608 -0.253118
-0.817717 0.374414 -0.253099
-0.818364 0.373622 -0.25427
-0.818113 0.373626 -0.253851
-0.818314 0.373226 -0.254233
-0.81829 0.373027 -0.254214
-0.943167 0.259772 -0.475912
-0.818126 0.372732 -0.253975
-0.809486 0.380395 -0.238655
-0.816856 0.373451 -0.251769
-0.818165 0.372028 -0.25412
-0.817913 0.372037 -0.253697
-0.817888 0.371836 -0.253678
-0.810702 0.378304 -0.240928
-0.810499 0.378296 -0.240589
-0.817811 0.371232 -0.25362
-0.816893 0.371872 -0.252012
-0.817988 0.370612 -0.253986
-0.817735 0.370624 -0.253561
-0.916546 0.276095 -0.429547
-0.916754 0.275286 -0.429986
-0.915347 0.276027 -0.427549
-0.91396 0.276757 -0.425148
-0.914158 0.275959 -0.42557
-0.914357 0.275157 -0.425995
-0.91298 0.275892 -0.423609
-0.913176 0.275093 -0.424027
-0.911814 0.275826 -0.421667
-0.910472 0.276547 -0.419341
-0.911423 0.274999 -0.421108
-0.90933 0.276479 -0.41744
-0.909512 0.275694 -0.417834
-0.908943 0.275662 -0.416887
-0.908377 0.27563 -0.415944
-0.910064 0.273316 -0.419028
-0.90799 0.274814 -0.415391
-0.907427 0.274784 -0.414453
-0.909099 0.272464 -0.417513
-0.906308 0.274724 -0.41259
-0.907958 0.272414 -0.415612
-0.908137 0.271615 -0.416003
-0.905368 0.273885 -0.411114
-0.907003 0.271569 -0.414112
-0.907179 0.270769 -0.414498
-0.905879 0.271523 -0.412239
-0.906052 0.270726 -0.412618
-0.906225 0.269926 -0.412999
-0.903498 0.272217 -0.408179
-0.905103 0.269887 -0.411129
-0.905274 0.269086 -0.411505
-0.902568 0.271387 -0.406719
-0.902729 0.270601 -0.407078
-0.904326 0.268249 -0.410017
-0.901641 0.27056 -0.405265
-0.903217 0.268219 -0.408167
-0.902667 0.268203 -0.407249
-0.902119 0.268188 -0.406334
-0.90228 0.267389 -0.406695
-0.899646 0.269699 -0.402027
-0.899798 0.268916 -0.402371
-0.899951 0.268127 -0.402717
-0.900104 0.267335 -0.403064
-0.898881 0.268098 -0.400932
-0.899031 0.267309 -0.401273
-0.896486 0.269591 -0.396757
-0.896627 0.268817 -0.397083
-0.89545 0.269555 -0.395031
-0.89429 0.270283 -0.393008
-0.893145 0.271001 -0.391012
-0.892016 0.27171 -0.389044
-0.892143 0.27096 -0.389341
-0.889803 0.273098 -0.385186
-0.891149 0.27092 -0.387685
-0.888835 0.273049 -0.383573
-0.889555 0.271601 -0.384942
-0.887875 0.273 -0.381974
-0.887989 0.27227 -0.382247
-0.889305 0.270095 -0.384697
-0.888218 0.2708 -0.382799
-0.885978 0.272904 -0.378815
-0.887851 0.27004 -0.382272
-0.88737 0.270022 -0.38147
-0.887483 0.269281 -0.381744
-0.887003 0.269264 -0.380943
-0.884216 0.272091 -0.375961
-0.884319 0.27137 -0.376216
-0.884423 0.270644 -0.376473
-0.883392 0.271329 -0.374672
-0.885791 0.267733 -0.379092
-0.882473 0.271288 -0.37314
-0.882572 0.270568 -0.373387
-0.882671 0.269845 -0.373635
-0.881658 0.270531 -0.371863
-0.881754 0.269811 -0.372106
-0.88185 0.269087 -0.372351
-0.880844 0.269776 -0.37059
-0.880938 0.269055 -0.37083
-0.881033 0.268331 -0.371071
-0.881128 0.267603 -0.371313
-0.883479 0.263929 -0.375663
-0.883582 0.263173 -0.375922
-0.880311 0.266848 -0.370033
-0.882641 0.263165 -0.374349
-0.882742 0.262408 -0.374605
-0.882843 0.261648 -0.374862
-0.879588 0.265364 -0.368994
-0.881904 0.261647 -0.373292
-0.882004 0.260885 -0.373545
-0.882104 0.26012 -0.3738
-0.878863 0.263877 -0.367954
-0.878953 0.263136 -0.368189
-0.881264 0.25936 -0.372484
-0.881362 0.25859 -0.372736
-0.878138 0.262388 -0.366911
-0.878226 0.261642 -0.367144
-0.878315 0.260894 -0.367378
-0.878404 0.260141 -0.367613
-0.877411 0.260896 -0.365868
-0.877498 0.260146 -0.366098
-0.877585 0.259393 -0.366329
-0.879318 0.256312 -0.369579
-0.876684 0.259402 -0.364822
-0.878947 0.255547 -0.369046
-0.879039 0.254768 -0.36929
-0.875872 0.258659 -0.36355
-0.875955 0.257905 -0.363774
-0.876038 0.257147 -0.364
-0.878295 0.253233 -0.368221
-0.875144 0.257165 -0.362504
-0.875225 0.256406 -0.362725
-0.875306 0.255644 -0.362948
-0.874335 0.256427 -0.361237
-0.874414 0.255668 -0.361455
-0.874493 0.254905 -0.361675
-0.877818 0.249306 -0.367873
-0.876803 0.250154 -0.366079
-0.87689 0.249357 -0.366316
-0.876978 0.248557 -0.366554
-0.80539 0.356088 -0.234589
-0.806594 0.353994 -0.236841
-0.806558 0.353776 -0.236805
-0.806703 0.353278 -0.237105
-0.806758 0.352916 -0.237239
-0.806446 0.353118 -0.236694
-0.806409 0.352898 -0.236657
-0.806555 0.352394 -0.236958
-0.806518 0.352172 -0.236922
-0.808995 0.348017 -0.241538
-0.80719 0.350554 -0.23823
-0.86856 0.253594 -0.351907
-0.868624 0.252842 -0.352099
-0.868687 0.252087 -0.352292
-0.868751 0.251328 -0.352486
-0.868816 0.250565 -0.35268
-0.86888 0.249799 -0.352876
-0.868945 0.249029 -0.353072
-0.868026 0.249846 -0.351443
-0.868089 0.249079 -0.351635
-0.868152 0.248308 -0.351829
-0.868215 0.247534 -0.352023
-0.868278 0.246755 -0.352218
-0.86452 0.252271 -0.345304
-0.864573 0.251528 -0.345478
-0.864626 0.250781 -0.345652
-0.806967 0.346203 -0.238355
-0.808119 0.343973 -0.240536
-0.807478 0.344737 -0.239377
-0.807242 0.344827 -0.238972
-0.863045 0.25012 -0.343085
-0.863094 0.249372 -0.343253
-0.864065 0.247049 -0.345142
-0.807484 0.343171 -0.239567
-0.807147 0.343436 -0.238972
-0.807207 0.343019 -0.23912
-0.80697 0.343114 -0.238713
-0.80693 0.342867 -0.238676
-0.805924 0.344306 -0.236828
-0.806852 0.342372 -0.238601
-0.80701 0.341775 -0.238934
-0.806576 0.342221 -0.238157
-0.806341 0.342319 -0.237753
-0.806301 0.342071 -0.237714
-0.806261 0.341823 -0.237676
-0.808462 0.337564 -0.241843
-0.857595 0.248967 -0.334107
-0.85763 0.248233 -0.33425
-0.856827 0.249015 -0.332817
-0.85686 0.248284 -0.332957
-0.856894 0.24755 -0.333097
-0.856928 0.246812 -0.333238
-0.856128 0.247603 -0.331811
-0.855338 0.248385 -0.330401
-0.855368 0.247656 -0.330534
-0.854585 0.248434 -0.329137
-0.853812 0.249203 -0.327757
-0.853839 0.248484 -0.327883
-0.853865 0.247761 -0.32801
-0.853891 0.247035 -0.328137
-0.853122 0.247813 -0.326762
-0.852362 0.248581 -0.325404
-0.852385 0.247864 -0.325524
-0.852408 0.247144 -0.325644
-0.85204 0.247171 -0.325027
-0.851674 0.247198 -0.324412
-0.850927 0.247966 -0.323075
-0.850946 0.247252 -0.323189
-0.850966 0.246534 -0.323304
-0.850224 0.247305 -0.321975
-0.850242 0.24659 -0.322087
-0.848038 0.250257 -0.317984
-0.84805 0.249563 -0.318084
-0.848063 0.248865 -0.318185
-0.84881 0.2467 -0.319681
-0.84995 0.243731 -0.321927
-0.85035 0.242232 -0.322767
-0.848853 0.244553 -0.319999
-0.853998 0.233433 -0.329872
-0.854026 0.232641 -0.330009
-0.854054 0.231846 -0.330147
-0.853664 0.231905 -0.329487
-0.854111 0.230244 -0.330424
-0.854564 0.22856 -0.331374
-0.855457 0.225954 -0.333165
-0.857267 0.22142 -0.33671
-0.858221 0.218644 -0.338622
-0.860152 0.213801 -0.342404
-0.862168 0.208744 -0.346352
-0.864275 0.20346 -0.350478
-0.867028 0.196766 -0.355847
-0.868786 0.192143 -0.359314
-0.868861 0.191086 -0.35956
-0.872504 0.182369 -0.366646
-0.875111 0.175819 -0.371753
-0.87521 0.174644 -0.372053
-0.877962 0.167705 -0.377448
-0.879451 0.163469 -0.38042
-0.809735 0.314941 -0.246558
-0.809691 0.314607 -0.246523
-0.809523 0.314548 -0.246248
-0.809479 0.314214 -0.246214
-0.809064 0.314704 -0.245463
-0.809267 0.31382 -0.245904
-0.810237 0.311214 -0.247823
-0.810193 0.310868 -0.24779
-0.80502 0.322087 -0.23786
-0.807639 0.315755 -0.242962
-0.808797 0.312694 -0.245248
-0.807785 0.314564 -0.243341
-0.809714 0.309711 -0.247122
-0.80967 0.309362 -0.247087
-0.810408 0.307204 -0.248568
-0.804487 0.320459 -0.237155
-0.811127 0.304604 -0.250068
-0.804603 0.319364 -0.237474
-0.804556 0.319058 -0.23743
-0.804509 0.318751 -0.237387
-0.809875 0.305656 -0.247854
-0.808546 0.308336 -0.245327
-0.804579 0.317321 -0.237667
-0.809476 0.30519 -0.247241
-0.811046 0.300951 -0.25035
-0.810862 0.300904 -0.250048
-0.809601 0.303463 -0.247647
-0.811331 0.298782 -0.251075
-0.811428 0.298047 -0.25132
-0.811382 0.297655 -0.251289
-0.81148 0.296911 -0.251537
-0.812756 0.293257 -0.254088
-0.809455 0.300904 -0.247696
-0.80582 0.309442 -0.240643
-0.811731 0.294238 -0.252263
-0.813187 0.290073 -0.255173
-0.804117 0.312338 -0.237464
-0.809087 0.299344 -0.247259
-0.810969 0.294074 -0.251007
-0.810922 0.29367 -0.250975
-0.812348 0.289504 -0.253836
-0.808631 0.298492 -0.246594
-0.809115 0.296741 -0.247604
-0.811023 0.291297 -0.251415
-0.803936 0.309146 -0.237528
-0.810353 0.291966 -0.25022
-0.812998 0.284516 -0.255493
-0.812952 0.284073 -0.255467
-0.812906 0.283629 -0.25544
-0.812859 0.283184 -0.255413
-0.812813 0.282737 -0.255386
-0.812766 0.282288 -0.255359
-0.812719 0.281839 -0.255332
-0.812672 0.281387 -0.255305
-0.810205 0.287465 -0.250487
-0.810301 0.286649 -0.250741
-0.81253 0.280025 -0.255223
-0.812324 0.28 -0.254882
-0.806754 0.294689 -0.243891
-0.806703 0.294301 -0.24385
-0.812338 0.278188 -0.255113
-0.812131 0.278166 -0.25477
-0.811303 0.279877 -0.253189
-0.811563 0.278558 -0.253775
-0.820215 0.253651 -0.271087
-0.821031 0.250652 -0.272794
-0.821209 0.249436 -0.273231
-0.821389 0.248208 -0.273672
-0.821571 0.246966 -0.274118
-0.821531 0.246353 -0.274121
-0.821715 0.245091 -0.274573
-0.821901 0.243816 -0.27503
-0.822318 0.241861 -0.275951
-0.82251 0.240549 -0.276423
-0.822705 0.239222 -0.276899
-0.822901 0.237879 -0.277381
-0.823339 0.235816 -0.27835
-0.823786 0.233713 -0.279337
-0.82449 0.230828 -0.280844
-0.825214 0.227865 -0.282393
-0.825696 0.225605 -0.283457
-0.826187 0.2233 -0.284542
-0.827233 0.219303 -0.286747
-0.827754 0.216867 -0.287897
-0.827722 0.216099 -0.287931
-0.828829 0.211841 -0.290269
-0.829384 0.209249 -0.291493
-0.804702 0.284503 -0.241627
-0.809969 0.267596 -0.252364
-0.809915 0.267103 -0.252331
-0.805562 0.28004 -0.243574
-0.806581 0.276233 -0.245713
-0.809442 0.266593 -0.251599
-0.809388 0.266098 -0.251564
-0.809333 0.265601 -0.25153
-0.80897 0.266085 -0.250867
-0.808762 0.266078 -0.250521
-0.808555 0.266072 -0.250175
-0.808499 0.265577 -0.250138
-0.808748 0.264092 -0.250724
-0.808692 0.26359 -0.250688
-0.83859 0.165115 -0.311929
-0.83077 0.189695 -0.296046
-0.830742 0.188786 -0.296103
-0.826475 0.201912 -0.28747
-0.810662 0.253559 -0.255129
-0.841851 0.148639 -0.319265
-0.848375 0.125571 -0.332809
-0.846421 0.130873 -0.328936
-0.846433 0.129571 -0.329106
-0.849458 0.118025 -0.335482
-0.84948 0.11663 -0.335679
-0.847961 0.120509 -0.332696
-0.847978 0.119136 -0.332882
-0.862815 0.0665347 -0.3637
-0.864296 0.0598454 -0.366941
-0.873729 0.0253836 -0.38665
-0.873855 0.0232099 -0.38711
-0.877515 0.00859769 -0.394899
-0.877663 0.0062688 -0.395412
-0.878738 0.000631732 -0.397855
-0.87984 -0.00514237 -0.400357
-0.878112 -0.000836243 -0.396976
-0.879207 -0.00663225 -0.399469
-0.879366 -0.00909528 -0.400017
-0.879526 -0.0115796 -0.400569
-0.878729 -0.0105954 -0.399124
-0.878887 -0.013088 -0.399672
-0.879046 -0.0156023 -0.400226
-0.879206 -0.0181385 -0.400784
-0.879368 -0.0206969 -0.401347
-0.879531 -0.0232779 -0.401915
-0.877759 -0.0186421 -0.398422
-0.872428 -0.000599626 -0.387447
-0.872554 -0.00297003 -0.387929
-0.878228 -0.0263691 -0.40009
-0.878387 -0.0289904 -0.400656
-0.878548 -0.031635 -0.401227
-0.87871 -0.0343033 -0.401803
-0.878873 -0.0369955 -0.402384
-0.879038 -0.039712 -0.402971
-0.879204 -0.0424531 -0.403562
-0.879372 -0.0452192 -0.40416
-0.879542 -0.0480105 -0.404762
-0.879713 -0.0508276 -0.40537
-0.879885 -0.0536706 -0.405984
-0.88006 -0.0565399 -0.406603
-0.880235 -0.059436 -0.407228
-0.880413 -0.0623592 -0.407859
-0.880592 -0.0653099 -0.408496
-0.880773 -0.0682884 -0.409139
-0.880955 -0.0712952 -0.409788
-0.88114 -0.0743307 -0.410444
-0.881326 -0.0773953 -0.411105
-0.881514 -0.0804894 -0.411773
-0.881703 -0.0836134 -0.412448
-0.881895 -0.0867677 -0.413128
-0.882088 -0.0899529 -0.413816
-0.883409 -0.0979005 -0.416933
-0.883614 -0.101202 -0.417653
-0.88382 -0.104536 -0.41838
-0.884029 -0.107904 -0.419114
-0.88424 -0.111306 -0.419855
-0.883289 -0.109737 -0.418087
-0.884668 -0.118215 -0.421361
-0.884885 -0.121722 -0.422126
-0.885105 -0.125266 -0.422898
-0.885327 -0.128846 -0.423679
-0.884347 -0.12716 -0.421848
-0.885778 -0.136119 -0.425264
-0.886007 -0.139813 -0.426069
-0.885008 -0.138053 -0.424199
-0.885233 -0.14176 -0.425
-0.885461 -0.145507 -0.425808
-0.886947 -0.154986 -0.429377
-0.885923 -0.153121 -0.427452
-0.886158 -0.156989 -0.428287
-0.886395 -0.160899 -0.429131
-0.885368 -0.158995 -0.427195
-0.886878 -0.168848 -0.430847
-0.887123 -0.172888 -0.431719
-0.884805 -0.164944 -0.426935
-0.885037 -0.168925 -0.427778
-0.878052 -0.138776 -0.412653
-0.882988 -0.165035 -0.423909
-0.883209 -0.169002 -0.424732
-0.853817 0.369305 -0.330806
-0.876539 0.35324 -0.369811
-0.860388 0.364077 -0.342166
-0.822195 0.390418 -0.276691
-0.826198 0.387376 -0.283592
-0.827262 0.386382 -0.28545
-0.833531 0.381693 -0.296246
-0.833106 0.381726 -0.295554
-0.823748 0.388144 -0.279516
-1.81839 -0.325917 -1.98839
-0.829466 0.383543 -0.289406
-0.829458 0.383289 -0.289428
-1.80193 -0.324159 -1.96146
-1.81841 -0.339567 -1.99025
-1.83546 -0.355509 -2.02004
-0.825366 0.385261 -0.282528
-0.824658 0.385536 -0.281342
-0.824645 0.385298 -0.281353
-0.82604 0.384008 -0.283789
-1.78567 -0.335767 -1.93666
-0.823245 0.385604 -0.279042
-0.82323 0.385369 -0.27905
-1.76984 -0.33393 -1.91075
-1.7855 -0.349237 -1.9382
-1.0071 0.243749 -0.596244
-1.75437 -0.332133 -1.88542
-1.7696 -0.34724 -1.91214
-1.78534 -0.362857 -1.93977
-1.80162 -0.379008 -1.96834
-0.817209 0.38809 -0.26892
-1.76935 -0.360696 -1.91355
-1.1098 0.156607 -0.774505
-0.817004 0.387554 -0.268661
-0.816841 0.38745 -0.26841
-0.817395 0.386773 -0.2694
-0.804983 0.396506 -0.247964
-0.805548 0.395856 -0.248968
-0.815358 0.387714 -0.26597
-0.815336 0.3875 -0.265963
-0.814499 0.387952 -0.264546
-0.814477 0.387741 -0.264537
-1.056 0.188559 -0.682967
-0.804394 0.395621 -0.247128
-0.80535 0.39463 -0.248812
-0.815479 0.38598 -0.2664
-0.808696 0.391426 -0.254668
-0.808895 0.391045 -0.255043
-0.814587 0.386023 -0.264947
-0.808842 0.390661 -0.255008
-1.41993 -0.130076 -1.31594
-0.808788 0.390276 -0.254972
-0.808761 0.390082 -0.254955
-0.805909 0.392325 -0.250028
-0.806936 0.391228 -0.251841
-0.808452 0.389697 -0.254506
-0.808199 0.3897 -0.254095
-0.807504 0.390092 -0.252915
-0.805353 0.39177 -0.249202
-0.805324 0.391588 -0.249179
-0.808315 0.388723 -0.254415
-0.808516 0.388323 -0.254793
-0.80826 0.38833 -0.254378
-0.806897 0.389333 -0.252034
-0.808433 0.38773 -0.254739
-0.808405 0.387531 -0.254721
-0.799555 0.39536 -0.239317
-0.93759 0.269049 -0.480135
-0.937925 0.268033 -0.480815
-0.807837 0.387153 -0.253851
-0.808036 0.386744 -0.254229
-0.852656 0.345079 -0.332186
-0.808209 0.386129 -0.254592
-0.805118 0.388795 -0.249221
-0.807021 0.386789 -0.252577
-0.806551 0.387007 -0.251786
-0.807866 0.385537 -0.254116
-0.807838 0.385334 -0.254097
-0.907697 0.289696 -0.428887
-0.9079 0.288884 -0.429325
-0.906471 0.289641 -0.426905
-0.905862 0.289614 -0.425922
-0.905256 0.289587 -0.424942
-0.903863 0.29033 -0.422584
-0.904052 0.289533 -0.422997
-0.904242 0.288732 -0.423413
-0.903642 0.288708 -0.422444
-0.903044 0.288683 -0.421479
-0.903231 0.287881 -0.42189
-0.900328 0.290161 -0.416876
-0.900505 0.289375 -0.417268
-0.900683 0.288585 -0.417663
-0.899344 0.289324 -0.415393
-0.899518 0.288537 -0.415781
-0.899693 0.287746 -0.416171
-0.899869 0.28695 -0.416562
-0.900045 0.28615 -0.416956
-0.89796 0.287679 -0.413369
-0.897387 0.287657 -0.412444
-0.899053 0.285312 -0.41546
-0.89625 0.287614 -0.410605
-0.897893 0.285279 -0.413585
-0.898064 0.284478 -0.413969
-0.895283 0.286789 -0.409149
-0.895444 0.286003 -0.409516
-0.895606 0.285213 -0.409885
-0.894319 0.285967 -0.407697
-0.894478 0.28518 -0.40806
-0.894637 0.28439 -0.408424
-0.893359 0.285148 -0.406251
-0.893515 0.284361 -0.406609
-0.892251 0.285116 -0.404458
-0.892403 0.284332 -0.40481
-0.893986 0.281973 -0.407694
-0.892001 0.283532 -0.404266
-0.892863 0.281955 -0.405876
-0.893018 0.281154 -0.406235
-0.890354 0.283494 -0.4016
-0.8905 0.282709 -0.401943
-0.890647 0.281919 -0.402287
-0.890795 0.281125 -0.402634
-0.889554 0.281902 -0.400517
-0.88833 0.282667 -0.39843
-0.887123 0.283422 -0.396372
-0.887259 0.282646 -0.396697
-0.88476 0.2849 -0.392341
-0.883603 0.285624 -0.390367
-0.883727 0.28487 -0.390669
-0.883851 0.284113 -0.390973
-0.881451 0.286303 -0.386787
-0.880336 0.287004 -0.384885
-0.88045 0.286267 -0.385168
-0.880564 0.285527 -0.385453
-0.880679 0.284782 -0.385739
-0.879568 0.285495 -0.383843
-0.87968 0.284753 -0.384124
-0.877391 0.286892 -0.380125
-0.87869 0.284725 -0.382522
-0.878799 0.283983 -0.382799
-0.876528 0.28613 -0.378828
-0.877814 0.283957 -0.381205
-0.877921 0.283215 -0.381479
-0.87743 0.283204 -0.380684
-0.874615 0.286062 -0.375736
-0.877046 0.282449 -0.380163
-0.873671 0.286029 -0.374209
-0.873765 0.285309 -0.374458
-0.876174 0.281686 -0.378851
-0.873388 0.284572 -0.373946
-0.872918 0.284558 -0.373185
-0.875305 0.280926 -0.377544
-0.871983 0.284531 -0.371674
-0.872073 0.28381 -0.371916
-0.872163 0.283085 -0.37216
-0.874536 0.279419 -0.376502
-0.871231 0.283064 -0.370652
-0.871319 0.282339 -0.370892
-0.870306 0.283043 -0.369155
-0.870392 0.282321 -0.369391
-0.870478 0.281595 -0.369628
-0.870564 0.280865 -0.369866
-0.872902 0.277156 -0.374156
-0.872996 0.276398 -0.374411
-0.873091 0.275636 -0.374667
-0.869808 0.279389 -0.368839
-0.872132 0.275646 -0.37311
-0.868885 0.279383 -0.367344
-0.868968 0.278649 -0.367576
-0.86905 0.277911 -0.36781
-0.869133 0.277169 -0.368044
-0.871451 0.273367 -0.372313
-0.871542 0.272596 -0.372565
-0.868292 0.27643 -0.366779
-0.868373 0.275684 -0.367011
-0.868455 0.274934 -0.367244
-0.870766 0.271073 -0.371511
-0.870855 0.270294 -0.371761
-0.867611 0.274197 -0.365976
-0.8699 0.270326 -0.370209
-0.869988 0.269547 -0.370456
-0.866771 0.273461 -0.364712
-0.869038 0.269582 -0.368911
-0.869123 0.268802 -0.369154
-0.865933 0.272728 -0.363452
-0.869295 0.26723 -0.369644
-0.868262 0.26806 -0.367857
-0.868345 0.267275 -0.368098
-0.865171 0.271242 -0.362417
-0.865245 0.270483 -0.362639
-0.867484 0.266535 -0.366801
-0.867565 0.265746 -0.367039
-0.867647 0.264953 -0.367278
-0.867729 0.264156 -0.367519
-0.866705 0.265008 -0.365744
-0.866784 0.264214 -0.365979
-0.865771 0.265062 -0.364222
-0.866944 0.262615 -0.366454
-0.875342 0.249198 -0.381876
-0.882166 0.238077 -0.394438
-0.796038 0.368895 -0.237177
-0.798278 0.365179 -0.24131
-0.796508 0.367613 -0.238111
-0.79619 0.367819 -0.237569
-0.796242 0.367456 -0.237701
-0.796201 0.367235 -0.237665
-0.79616 0.367014 -0.237629
-0.798643 0.362831 -0.242218
-0.796639 0.365687 -0.238583
-0.859386 0.266192 -0.353718
-0.859445 0.265429 -0.353916
-0.859504 0.264662 -0.354115
-0.859564 0.263892 -0.354315
-0.859623 0.263118 -0.354516
-0.858685 0.263949 -0.352882
-0.858742 0.263179 -0.353078
-0.858799 0.262404 -0.353276
-0.857868 0.263239 -0.351652
-0.857923 0.262468 -0.351846
-0.857978 0.261693 -0.35204
-0.855143 0.265679 -0.346907
-0.855191 0.264928 -0.347085
-0.855239 0.264174 -0.347264
-0.855287 0.263416 -0.347444
-0.855335 0.262655 -0.347625
-0.855384 0.261889 -0.347806
-0.797055 0.35957 -0.240081
-0.849174 0.271025 -0.336509
-0.798194 0.357003 -0.242273
-0.851862 0.265133 -0.34166
-0.852809 0.262837 -0.343505
-0.852851 0.262082 -0.343674
-0.796701 0.358273 -0.239682
-0.795591 0.359875 -0.237666
-0.796516 0.357953 -0.239425
-0.796473 0.357706 -0.239389
-0.79643 0.357459 -0.239352
-0.798022 0.354336 -0.242354
