1714
0.088971 0.112137 0.008954 
0.103370 0.112389 0.025389 
0.103209 0.112372 0.024764 
0.103049 0.112356 0.024139 
0.102888 0.112339 0.023513 
0.100442 0.112346 0.023823 
0.100279 0.112329 0.023198 
0.100116 0.112312 0.022572 
0.099952 0.112296 0.021944 
0.099788 0.112279 0.021316 
0.097019 0.112253 0.020377 
0.094764 0.112276 0.021324 
0.094596 0.112260 0.020698 
0.094428 0.112243 0.020071 
0.094259 0.112226 0.019442 
0.094090 0.112210 0.018812 
0.093921 0.112193 0.018181 
0.093751 0.112176 0.017549 
0.093581 0.112159 0.016916 
0.091507 0.112200 0.018510 
0.091336 0.112183 0.017880 
0.091164 0.112167 0.017249 
0.090992 0.112150 0.016617 
0.090820 0.112133 0.015984 
0.090647 0.112116 0.015349 
0.090474 0.112099 0.014714 
0.090301 0.112083 0.014077 
0.090127 0.112066 0.013439 
0.089953 0.112049 0.012800 
0.089779 0.112032 0.012160 
0.089604 0.112015 0.011518 
0.089429 0.111998 0.010875 
0.089254 0.111980 0.010231 
0.089079 0.111963 0.009586 
0.088903 0.111946 0.008939 
0.102736 0.112632 0.025428 
0.102573 0.112612 0.024804 
0.102409 0.112591 0.024178 
0.102246 0.112570 0.023551 
0.099965 0.112581 0.024499 
0.099800 0.112560 0.023875 
0.099634 0.112539 0.023249 
0.099467 0.112518 0.022623 
0.099301 0.112498 0.021995 
0.099134 0.112477 0.021366 
0.096529 0.112446 0.021069 
0.094278 0.112457 0.022025 
0.094107 0.112436 0.021400 
0.093936 0.112416 0.020773 
0.093765 0.112395 0.020145 
0.093593 0.112374 0.019516 
0.093421 0.112353 0.018886 
0.093249 0.112332 0.018255 
0.093076 0.112311 0.017622 
0.092903 0.112290 0.016989 
0.090835 0.112323 0.018596 
0.090661 0.112302 0.017966 
0.090486 0.112280 0.017335 
0.090311 0.112259 0.016702 
0.090136 0.112238 0.016069 
0.089961 0.112217 0.015434 
0.089785 0.112196 0.014798 
0.089608 0.112175 0.014161 
0.089432 0.112153 0.013523 
0.089255 0.112132 0.012883 
0.089078 0.112111 0.012242 
0.088900 0.112089 0.011600 
0.088722 0.112068 0.010957 
0.088544 0.112046 0.010313 
0.088366 0.112025 0.009667 
0.110302 0.112803 0.025859 
0.107816 0.112762 0.026177 
0.105186 0.112698 0.025870 
0.102731 0.112657 0.026186 
0.102568 0.112635 0.025563 
0.102404 0.112613 0.024939 
0.102241 0.112590 0.024313 
0.102077 0.112568 0.023686 
0.099963 0.112572 0.025258 
0.099797 0.112550 0.024635 
0.099632 0.112527 0.024011 
0.099466 0.112505 0.023385 
0.099299 0.112482 0.022758 
0.099133 0.112460 0.022131 
0.098966 0.112437 0.021501 
0.096361 0.112374 0.021205 
0.096192 0.112352 0.020577 
0.093940 0.112335 0.021537 
0.093769 0.112312 0.020911 
0.093598 0.112289 0.020283 
0.093426 0.112267 0.019654 
0.093254 0.112244 0.019024 
0.093082 0.112221 0.018393 
0.092910 0.112198 0.017760 
0.092737 0.112175 0.017127 
0.090669 0.112182 0.018735 
0.090495 0.112159 0.018105 
0.090320 0.112136 0.017473 
0.090145 0.112113 0.016841 
0.089970 0.112090 0.016208 
0.089795 0.112067 0.015573 
0.089619 0.112044 0.014937 
0.089443 0.112021 0.014300 
0.089266 0.111998 0.013662 
0.089089 0.111975 0.013022 
0.088912 0.111952 0.012381 
0.088735 0.111929 0.011739 
0.088557 0.111905 0.011096 
0.088379 0.111882 0.010452 
0.105326 0.112665 0.026399 
0.102712 0.112575 0.026091 
0.102549 0.112551 0.025468 
0.102386 0.112527 0.024843 
0.102223 0.112503 0.024217 
0.102059 0.112479 0.023591 
0.099780 0.112437 0.024539 
0.099614 0.112413 0.023914 
0.099449 0.112389 0.023289 
0.099283 0.112365 0.022662 
0.099117 0.112341 0.022034 
0.098950 0.112317 0.021405 
0.096347 0.112227 0.021108 
0.096178 0.112203 0.020479 
0.093926 0.112162 0.021439 
0.093755 0.112138 0.020813 
0.093584 0.112114 0.020185 
0.093413 0.112090 0.019556 
0.093242 0.112065 0.018926 
0.093070 0.112041 0.018295 
0.092898 0.112017 0.017662 
0.092726 0.111992 0.017029 
0.090657 0.111977 0.018636 
0.090483 0.111952 0.018006 
0.090309 0.111928 0.017375 
0.090135 0.111903 0.016742 
0.089960 0.111879 0.016109 
0.089785 0.111854 0.015474 
0.089609 0.111830 0.014838 
0.089434 0.111805 0.014201 
0.089258 0.111780 0.013562 
0.089081 0.111755 0.012923 
0.088904 0.111731 0.012282 
0.088728 0.111706 0.011640 
0.088550 0.111681 0.010997 
0.088372 0.111656 0.010353 
0.105194 0.112687 0.026488 
0.105034 0.112662 0.025863 
0.104874 0.112636 0.025238 
0.102581 0.112566 0.026179 
0.102419 0.112540 0.025556 
0.102256 0.112514 0.024931 
0.102093 0.112488 0.024306 
0.101930 0.112463 0.023679 
0.099651 0.112393 0.024626 
0.099486 0.112367 0.024002 
0.099321 0.112342 0.023376 
0.099156 0.112316 0.022749 
0.098990 0.112289 0.022121 
0.098824 0.112263 0.021492 
0.093802 0.112049 0.021526 
0.093632 0.112023 0.020899 
0.093461 0.111997 0.020271 
0.093290 0.111970 0.019642 
0.093119 0.111944 0.019012 
0.092948 0.111918 0.018381 
0.092776 0.111891 0.017748 
0.092604 0.111865 0.017115 
0.092432 0.111838 0.016480 
0.090362 0.111798 0.018091 
0.090189 0.111772 0.017460 
0.090015 0.111745 0.016828 
0.089841 0.111718 0.016194 
0.089666 0.111692 0.015559 
0.089491 0.111665 0.014923 
0.089316 0.111638 0.014286 
0.089140 0.111612 0.013648 
0.088964 0.111585 0.013008 
0.088788 0.111558 0.012367 
0.088611 0.111531 0.011725 
0.088434 0.111504 0.011082 
0.088257 0.111477 0.010438 
0.102367 0.112497 0.025532 
0.102205 0.112470 0.024908 
0.102042 0.112442 0.024282 
0.101879 0.112414 0.023656 
0.101715 0.112386 0.023028 
0.099601 0.112317 0.024604 
0.099436 0.112289 0.023980 
0.099271 0.112261 0.023354 
0.099106 0.112233 0.022728 
0.098940 0.112205 0.022100 
0.098774 0.112177 0.021471 
0.096005 0.111996 0.020546 
0.095836 0.111968 0.019916 
0.093755 0.111901 0.021507 
0.093585 0.111872 0.020880 
0.093414 0.111844 0.020252 
0.093244 0.111816 0.019623 
0.093073 0.111787 0.018993 
0.092901 0.111759 0.018362 
0.092730 0.111730 0.017730 
0.092558 0.111702 0.017096 
0.092385 0.111673 0.016461 
0.090317 0.111608 0.018074 
0.090144 0.111579 0.017443 
0.089970 0.111550 0.016810 
0.089795 0.111522 0.016177 
0.089621 0.111493 0.015542 
0.089446 0.111464 0.014906 
0.089271 0.111435 0.014269 
0.089095 0.111406 0.013631 
0.088919 0.111378 0.012991 
0.088743 0.111349 0.012351 
0.088566 0.111319 0.011709 
0.088389 0.111290 0.011066 
0.088212 0.111261 0.010421 
0.107495 0.112853 0.026206 
0.102420 0.112515 0.026215 
0.102258 0.112486 0.025592 
0.102096 0.112456 0.024968 
0.101934 0.112426 0.024342 
0.101771 0.112397 0.023716 
0.101608 0.112367 0.023088 
0.099495 0.112274 0.024664 
0.099330 0.112244 0.024040 
0.099165 0.112214 0.023414 
0.099000 0.112184 0.022788 
0.098835 0.112154 0.022160 
0.098669 0.112124 0.021531 
0.093483 0.111761 0.020940 
0.093313 0.111731 0.020313 
0.093143 0.111701 0.019684 
0.092972 0.111670 0.019054 
0.092801 0.111640 0.018422 
0.092630 0.111610 0.017790 
0.092458 0.111579 0.017156 
0.092286 0.111549 0.016522 
0.092114 0.111518 0.015886 
0.090046 0.111429 0.017503 
0.089872 0.111398 0.016871 
0.089698 0.111368 0.016237 
0.089524 0.111337 0.015603 
0.089349 0.111306 0.014967 
0.089174 0.111275 0.014330 
0.088999 0.111245 0.013691 
0.088823 0.111214 0.013052 
0.088648 0.111183 0.012411 
0.088471 0.111152 0.011769 
0.104791 0.112663 0.025914 
0.102342 0.112477 0.026230 
0.102181 0.112446 0.025607 
0.102019 0.112414 0.024983 
0.101858 0.112383 0.024357 
0.101695 0.112351 0.023730 
0.101533 0.112320 0.023102 
0.099420 0.112198 0.024678 
0.099257 0.112167 0.024054 
0.099092 0.112135 0.023428 
0.098928 0.112103 0.022801 
0.098763 0.112072 0.022174 
0.098598 0.112040 0.021545 
0.093417 0.111609 0.020953 
0.093248 0.111577 0.020325 
0.093078 0.111545 0.019696 
0.092908 0.111513 0.019066 
0.092737 0.111481 0.018435 
0.092566 0.111448 0.017802 
0.092395 0.111416 0.017168 
0.092224 0.111383 0.016534 
0.092052 0.111351 0.015898 
0.089985 0.111234 0.017515 
0.089812 0.111201 0.016882 
0.089638 0.111169 0.016249 
0.089465 0.111136 0.015614 
0.089291 0.111103 0.014978 
0.089116 0.111071 0.014341 
0.088942 0.111038 0.013702 
0.088766 0.111005 0.013063 
0.088591 0.110972 0.012422 
0.107288 0.112907 0.026276 
0.107131 0.112874 0.025649 
0.104827 0.112690 0.026591 
0.104668 0.112657 0.025966 
0.104510 0.112624 0.025340 
0.102223 0.112440 0.026281 
0.102062 0.112407 0.025658 
0.101901 0.112374 0.025033 
0.101740 0.112341 0.024408 
0.101578 0.112307 0.023781 
0.101416 0.112274 0.023153 
0.099305 0.112126 0.024728 
0.099142 0.112092 0.024103 
0.098978 0.112059 0.023478 
0.098814 0.112025 0.022851 
0.098650 0.111991 0.022223 
0.098486 0.111958 0.021594 
0.093142 0.111429 0.020372 
0.092973 0.111395 0.019743 
0.092804 0.111360 0.019113 
0.092634 0.111326 0.018481 
0.092464 0.111292 0.017849 
0.092293 0.111257 0.017215 
0.092123 0.111223 0.016580 
0.091952 0.111188 0.015944 
0.089885 0.111046 0.017560 
0.089713 0.111011 0.016928 
0.089540 0.110976 0.016294 
0.089367 0.110942 0.015659 
0.089194 0.110907 0.015023 
0.089020 0.110872 0.014386 
0.088846 0.110837 0.013748 
0.088672 0.110802 0.013108 
0.088497 0.110767 0.012467 
0.104827 0.112683 0.026551 
0.104669 0.112648 0.025927 
0.104510 0.112613 0.025301 
0.104352 0.112578 0.024674 
0.102226 0.112402 0.026242 
0.102066 0.112367 0.025619 
0.101905 0.112332 0.024994 
0.101744 0.112297 0.024369 
0.101583 0.112261 0.023742 
0.101421 0.112226 0.023114 
0.099149 0.112017 0.024065 
0.098986 0.111981 0.023439 
0.098822 0.111946 0.022812 
0.098659 0.111910 0.022184 
0.098494 0.111874 0.021555 
0.095571 0.111523 0.019998 
0.093158 0.111281 0.020334 
0.092989 0.111245 0.019705 
0.092820 0.111209 0.019075 
0.092650 0.111173 0.018444 
0.092480 0.111136 0.017811 
0.092311 0.111100 0.017177 
0.092140 0.111063 0.016542 
0.091969 0.111027 0.015906 
0.091798 0.110990 0.015269 
0.089733 0.110822 0.016890 
0.089561 0.110786 0.016257 
0.089388 0.110749 0.015622 
0.089215 0.110712 0.014986 
0.089041 0.110675 0.014349 
0.107139 0.112961 0.026241 
0.104527 0.112646 0.025933 
0.104368 0.112610 0.025307 
0.102087 0.112370 0.026249 
0.101927 0.112333 0.025626 
0.101766 0.112296 0.025001 
0.101606 0.112259 0.024376 
0.101445 0.112222 0.023749 
0.101283 0.112185 0.023121 
0.101122 0.112147 0.022492 
0.099015 0.111947 0.024073 
0.098851 0.111909 0.023447 
0.098688 0.111872 0.022821 
0.098524 0.111835 0.022193 
0.098360 0.111797 0.021564 
0.092862 0.111099 0.019716 
0.092693 0.111061 0.019086 
0.092524 0.111023 0.018454 
0.092355 0.110985 0.017822 
0.092185 0.110946 0.017188 
0.092015 0.110908 0.016553 
0.091844 0.110869 0.015917 
0.089783 0.110675 0.017535 
0.089611 0.110637 0.016902 
0.089439 0.110598 0.016269 
0.089266 0.110559 0.015634 
0.089093 0.110521 0.014998 
0.107109 0.112939 0.026253 
0.104500 0.112595 0.025944 
0.104343 0.112556 0.025318 
0.104184 0.112518 0.024691 
0.102064 0.112291 0.026259 
0.101904 0.112252 0.025636 
0.101745 0.112213 0.025011 
0.101584 0.112175 0.024386 
0.101424 0.112136 0.023759 
0.101263 0.112097 0.023131 
0.101102 0.112058 0.022502 
0.098997 0.111833 0.024082 
0.098835 0.111794 0.023457 
0.098672 0.111755 0.022830 
0.098509 0.111716 0.022202 
0.098345 0.111676 0.021573 
0.098182 0.111637 0.020942 
0.092688 0.110876 0.019093 
0.092519 0.110836 0.018462 
0.092350 0.110796 0.017829 
0.092181 0.110756 0.017195 
0.092011 0.110716 0.016560 
0.091841 0.110676 0.015924 
0.091671 0.110635 0.015287 
0.091501 0.110595 0.014649 
0.091330 0.110554 0.014009 
0.089095 0.110296 0.015004 
0.109624 0.113359 0.026567 
0.107007 0.112983 0.026256 
0.104403 0.112608 0.025946 
0.104246 0.112568 0.025320 
0.104088 0.112527 0.024694 
0.101811 0.112235 0.025638 
0.101652 0.112194 0.025014 
0.101493 0.112154 0.024388 
0.101333 0.112113 0.023761 
0.101173 0.112072 0.023133 
0.101012 0.112031 0.022504 
0.098909 0.111782 0.024084 
0.098748 0.111741 0.023458 
0.098585 0.111700 0.022831 
0.098423 0.111658 0.022203 
0.098260 0.111617 0.021574 
0.098097 0.111576 0.020944 
0.092613 0.110751 0.019093 
0.092445 0.110709 0.018462 
0.092277 0.110667 0.017829 
0.092108 0.110624 0.017195 
0.091939 0.110582 0.016560 
0.091770 0.110540 0.015924 
0.091600 0.110497 0.015287 
0.091430 0.110454 0.014648 
0.107046 0.113037 0.026934 
0.106891 0.112995 0.026308 
0.106736 0.112954 0.025681 
0.104291 0.112592 0.026001 
0.104134 0.112550 0.025375 
0.103976 0.112508 0.024748 
0.101862 0.112232 0.026318 
0.101703 0.112190 0.025694 
0.101544 0.112148 0.025070 
0.101384 0.112106 0.024445 
0.101224 0.112064 0.023818 
0.101064 0.112022 0.023190 
0.100904 0.111980 0.022561 
0.098805 0.111706 0.024142 
0.098643 0.111664 0.023517 
0.098481 0.111621 0.022890 
0.098319 0.111579 0.022262 
0.098156 0.111536 0.021633 
0.097992 0.111493 0.021003 
0.092348 0.110566 0.018525 
0.092180 0.110522 0.017893 
0.092011 0.110479 0.017259 
0.091842 0.110435 0.016624 
0.091672 0.110391 0.015988 
0.091503 0.110347 0.015351 
0.091333 0.110303 0.014713 
0.091162 0.110259 0.014073 
0.106870 0.112970 0.026274 
0.104431 0.112579 0.026590 
0.104274 0.112535 0.025965 
0.104118 0.112491 0.025339 
0.103961 0.112448 0.024712 
0.101692 0.112102 0.025658 
0.101533 0.112058 0.025034 
0.101375 0.112014 0.024408 
0.101215 0.111970 0.023781 
0.101056 0.111926 0.023153 
0.100896 0.111882 0.022524 
0.098316 0.111450 0.022224 
0.098154 0.111405 0.021595 
0.097992 0.111360 0.020965 
0.097829 0.111315 0.020334 
0.092192 0.110319 0.017853 
0.092024 0.110274 0.017219 
0.091856 0.110228 0.016584 
0.091687 0.110182 0.015948 
0.091519 0.110136 0.015311 
0.106854 0.113037 0.026925 
0.106701 0.112993 0.026299 
0.106547 0.112948 0.025672 
0.104267 0.112573 0.026615 
0.104111 0.112528 0.025990 
0.103955 0.112483 0.025365 
0.103799 0.112438 0.024738 
0.101691 0.112112 0.026307 
0.101533 0.112066 0.025683 
0.101375 0.112021 0.025059 
0.101217 0.111976 0.024433 
0.101058 0.111930 0.023806 
0.100899 0.111884 0.023178 
0.100740 0.111839 0.022549 
0.100581 0.111793 0.021919 
0.098487 0.111469 0.023504 
0.098326 0.111423 0.022877 
0.098165 0.111377 0.022249 
0.098004 0.111331 0.021620 
0.097842 0.111285 0.020990 
0.097680 0.111238 0.020358 
0.092055 0.110179 0.017877 
0.091887 0.110132 0.017243 
0.091719 0.110084 0.016608 
0.091551 0.110037 0.015972 
0.091383 0.109989 0.015335 
0.091214 0.109942 0.014696 
0.091046 0.109894 0.014057 
0.090876 0.109846 0.013416 
0.106814 0.113054 0.026953 
0.106662 0.113008 0.026327 
0.106509 0.112961 0.025700 
0.104232 0.112559 0.026640 
0.104078 0.112512 0.026015 
0.103923 0.112465 0.025389 
0.103768 0.112418 0.024762 
0.103613 0.112371 0.024134 
0.101507 0.112018 0.025705 
0.101350 0.111971 0.025080 
0.101193 0.111924 0.024454 
0.101036 0.111877 0.023827 
0.100878 0.111829 0.023199 
0.100720 0.111782 0.022569 
0.100562 0.111734 0.021939 
0.098471 0.111384 0.023522 
0.098311 0.111337 0.022895 
0.098151 0.111289 0.022267 
0.097991 0.111241 0.021637 
0.097831 0.111193 0.021007 
0.097670 0.111145 0.020375 
0.091562 0.109869 0.015982 
0.091395 0.109820 0.015344 
0.091227 0.109770 0.014705 
0.091060 0.109720 0.014065 
0.106555 0.113115 0.027329 
0.106403 0.113068 0.026703 
0.103980 0.112590 0.027016 
0.103825 0.112543 0.026392 
0.103671 0.112495 0.025766 
0.103516 0.112448 0.025139 
0.101416 0.112067 0.026706 
0.101260 0.112020 0.026082 
0.101103 0.111972 0.025457 
0.100946 0.111924 0.024831 
0.100789 0.111876 0.024204 
0.100632 0.111828 0.023576 
0.100474 0.111780 0.022947 
0.100316 0.111731 0.022316 
0.098230 0.111354 0.023900 
0.098071 0.111306 0.023273 
0.097911 0.111257 0.022645 
0.097751 0.111209 0.022015 
0.097590 0.111160 0.021385 
0.097430 0.111111 0.020753 
0.091334 0.109772 0.016361 
0.091168 0.109722 0.015723 
0.091000 0.109672 0.015085 
0.090833 0.109621 0.014445 
0.106485 0.113062 0.026385 
0.104068 0.112552 0.026699 
0.103914 0.112502 0.026074 
0.103760 0.112451 0.025448 
0.103606 0.112401 0.024821 
0.103452 0.112350 0.024193 
0.101356 0.111944 0.025765 
0.101200 0.111893 0.025140 
0.101044 0.111842 0.024515 
0.100888 0.111791 0.023888 
0.100731 0.111740 0.023259 
0.100574 0.111688 0.022630 
0.100416 0.111637 0.022000 
0.100259 0.111586 0.021368 
0.098177 0.111183 0.022957 
0.098018 0.111131 0.022329 
0.097859 0.111079 0.021699 
0.097699 0.111027 0.021069 
0.097539 0.110976 0.020437 
0.097379 0.110923 0.019804 
0.091297 0.109495 0.015409 
0.106821 0.113109 0.026680 
0.106661 0.113057 0.026056 
0.106501 0.113004 0.025431 
0.104253 0.112527 0.026406 
0.104091 0.112474 0.025784 
0.103929 0.112422 0.025160 
0.103766 0.112369 0.024536 
0.103603 0.112316 0.023910 
0.101533 0.111895 0.025513 
0.101369 0.111841 0.024891 
0.101204 0.111788 0.024267 
0.101039 0.111735 0.023643 
0.100874 0.111681 0.023017 
0.100708 0.111627 0.022390 
0.100542 0.111574 0.021762 
0.098488 0.111156 0.023377 
0.098321 0.111102 0.022752 
0.098153 0.111048 0.022127 
0.097985 0.110994 0.021500 
0.097816 0.110940 0.020872 
0.097648 0.110886 0.020243 
0.097479 0.110831 0.019612 
0.104902 0.113315 0.028925 
0.104750 0.113265 0.028299 
0.104599 0.113215 0.027672 
0.102195 0.112639 0.027989 
0.102041 0.112588 0.027363 
0.101887 0.112538 0.026736 
0.101733 0.112487 0.026108 
0.099652 0.112015 0.027681 
0.099496 0.111964 0.027057 
0.099340 0.111913 0.026431 
0.099184 0.111862 0.025804 
0.099028 0.111811 0.025175 
0.098871 0.111760 0.024546 
0.098713 0.111708 0.023916 
0.097599 0.111448 0.024396 
0.096489 0.111188 0.024874 
0.096330 0.111137 0.024246 
0.096171 0.111085 0.023616 
0.096011 0.111033 0.022986 
0.095852 0.110981 0.022354 
0.095691 0.110929 0.021721 
0.106169 0.113120 0.026400 
0.103772 0.112526 0.026715 
0.103620 0.112470 0.026090 
0.103467 0.112415 0.025465 
0.103315 0.112359 0.024837 
0.103162 0.112303 0.024209 
0.101083 0.111823 0.025782 
0.100928 0.111767 0.025157 
0.100774 0.111711 0.024532 
0.100619 0.111655 0.023905 
0.100464 0.111598 0.023277 
0.100308 0.111542 0.022647 
0.100153 0.111486 0.022017 
0.099997 0.111429 0.021385 
0.097773 0.110896 0.022347 
0.097616 0.110839 0.021717 
0.097458 0.110782 0.021087 
0.097299 0.110725 0.020455 
0.097141 0.110667 0.019823 
0.096982 0.110610 0.019189 
0.106304 0.113119 0.026170 
0.103915 0.112509 0.026520 
0.103754 0.112452 0.025898 
0.103594 0.112395 0.025274 
0.103432 0.112338 0.024650 
0.103271 0.112281 0.024024 
0.101217 0.111789 0.025627 
0.101055 0.111731 0.025004 
0.100891 0.111673 0.024381 
0.100728 0.111616 0.023756 
0.100564 0.111558 0.023130 
0.100400 0.111500 0.022503 
0.100236 0.111442 0.021875 
0.100071 0.111384 0.021246 
0.098031 0.110895 0.022866 
0.097865 0.110837 0.022240 
0.097699 0.110778 0.021613 
0.097532 0.110720 0.020985 
0.097365 0.110661 0.020356 
0.097198 0.110602 0.019725 
0.097030 0.110543 0.019094 
0.096862 0.110484 0.018461 
0.106263 0.113182 0.026912 
0.106114 0.113124 0.026286 
0.105964 0.113065 0.025659 
0.105815 0.113007 0.025031 
0.103729 0.112480 0.026602 
0.103578 0.112421 0.025977 
0.103427 0.112362 0.025351 
0.103275 0.112303 0.024724 
0.103123 0.112244 0.024096 
0.101055 0.111722 0.025670 
0.100901 0.111663 0.025045 
0.100748 0.111603 0.024420 
0.100594 0.111543 0.023793 
0.100440 0.111483 0.023165 
0.100286 0.111423 0.022535 
0.100131 0.111363 0.021905 
0.099976 0.111303 0.021273 
0.097921 0.110786 0.022864 
0.097765 0.110725 0.022236 
0.097608 0.110664 0.021607 
0.097451 0.110604 0.020976 
0.097294 0.110543 0.020345 
0.097136 0.110482 0.019712 
0.096978 0.110421 0.019078 
0.096820 0.110360 0.018443 
0.096662 0.110298 0.017807 
0.106350 0.113198 0.026747 
0.106193 0.113138 0.026123 
0.106035 0.113078 0.025498 
0.103818 0.112474 0.026473 
0.103659 0.112413 0.025851 
0.103499 0.112353 0.025227 
0.103339 0.112292 0.024602 
0.103179 0.112231 0.023977 
0.101138 0.111692 0.025580 
0.100976 0.111631 0.024957 
0.100814 0.111569 0.024334 
0.100652 0.111508 0.023709 
0.100490 0.111446 0.023083 
0.100327 0.111384 0.022457 
0.100164 0.111323 0.021828 
0.100000 0.111261 0.021199 
0.097973 0.110727 0.022819 
0.097808 0.110664 0.022193 
0.097643 0.110602 0.021566 
0.097477 0.110539 0.020938 
0.097312 0.110477 0.020309 
0.097146 0.110414 0.019679 
0.096979 0.110351 0.019047 
0.096813 0.110288 0.018414 
0.096646 0.110225 0.017781 
0.106776 0.113119 0.026090 
0.106613 0.113055 0.025469 
0.106450 0.112991 0.024846 
0.106286 0.112927 0.024222 
0.104247 0.112377 0.025846 
0.104082 0.112313 0.025226 
0.103916 0.112248 0.024604 
0.103750 0.112183 0.023981 
0.103584 0.112118 0.023358 
0.101562 0.111574 0.024984 
0.101395 0.111508 0.024364 
0.101227 0.111443 0.023742 
0.101059 0.111378 0.023120 
0.100891 0.111312 0.022496 
0.100722 0.111246 0.021871 
0.100553 0.111180 0.021245 
0.100383 0.111115 0.020618 
0.098376 0.110575 0.022260 
0.098205 0.110508 0.021637 
0.098034 0.110442 0.021012 
0.097863 0.110376 0.020386 
0.097691 0.110309 0.019759 
0.097519 0.110242 0.019130 
0.097347 0.110175 0.018501 
0.097174 0.110108 0.017870 
0.097001 0.110041 0.017238 
0.096828 0.109974 0.016605 
0.104406 0.113223 0.029128 
0.104258 0.113164 0.028501 
0.104110 0.113106 0.027874 
0.103961 0.113047 0.027246 
0.101900 0.112427 0.028816 
0.101750 0.112368 0.028191 
0.101600 0.112309 0.027565 
0.101449 0.112250 0.026938 
0.101298 0.112190 0.026310 
0.099255 0.111576 0.027882 
0.099102 0.111516 0.027257 
0.098950 0.111456 0.026631 
0.098797 0.111396 0.026004 
0.098644 0.111336 0.025376 
0.098491 0.111276 0.024747 
0.098337 0.111216 0.024116 
0.098183 0.111155 0.023484 
0.098029 0.111095 0.022851 
0.096933 0.110759 0.023335 
0.095842 0.110424 0.023816 
0.095686 0.110363 0.023186 
0.095530 0.110302 0.022554 
0.095373 0.110240 0.021921 
0.095216 0.110179 0.021287 
0.095059 0.110118 0.020651 
0.094902 0.110056 0.020015 
0.094744 0.109994 0.019377 
0.094586 0.109933 0.018738 
0.106156 0.113262 0.026861 
0.106001 0.113197 0.026238 
0.105845 0.113131 0.025613 
0.105689 0.113065 0.024987 
0.103652 0.112447 0.026589 
0.103495 0.112381 0.025967 
0.103337 0.112315 0.025344 
0.103179 0.112248 0.024719 
0.103021 0.112182 0.024093 
0.102862 0.112115 0.023466 
0.100841 0.111502 0.025075 
0.100681 0.111436 0.024452 
0.100521 0.111368 0.023827 
0.100360 0.111301 0.023202 
0.100199 0.111234 0.022575 
0.100038 0.111167 0.021947 
0.099877 0.111099 0.021318 
0.099715 0.111031 0.020687 
0.097708 0.110423 0.022313 
0.097545 0.110355 0.021686 
0.097381 0.110287 0.021058 
0.097218 0.110219 0.020429 
0.097054 0.110150 0.019799 
0.096889 0.110082 0.019167 
0.096725 0.110013 0.018535 
0.096560 0.109944 0.017901 
0.096394 0.109875 0.017266 
0.096229 0.109806 0.016629 
0.096063 0.109737 0.015992 
0.105793 0.113198 0.026951 
0.105648 0.113132 0.026325 
0.105503 0.113065 0.025698 
0.105357 0.112999 0.025069 
0.103305 0.112348 0.026638 
0.103158 0.112281 0.026014 
0.103011 0.112214 0.025388 
0.102864 0.112147 0.024761 
0.102716 0.112080 0.024132 
0.100681 0.111435 0.025704 
0.100532 0.111368 0.025079 
0.100382 0.111300 0.024453 
0.100232 0.111232 0.023826 
0.100082 0.111164 0.023198 
0.099932 0.111096 0.022569 
0.099782 0.111027 0.021938 
0.099631 0.110959 0.021306 
0.099480 0.110890 0.020673 
0.097457 0.110250 0.022267 
0.097304 0.110182 0.021637 
0.097152 0.110112 0.021007 
0.096999 0.110043 0.020375 
0.096845 0.109974 0.019742 
0.096692 0.109904 0.019108 
0.096538 0.109835 0.018473 
0.096383 0.109765 0.017837 
0.096229 0.109695 0.017199 
0.096074 0.109625 0.016560 
0.095919 0.109555 0.015920 
0.110426 0.114471 0.026931 
0.105714 0.112829 0.027535 
0.105571 0.112768 0.026908 
0.105427 0.112706 0.026280 
0.105283 0.112645 0.025651 
0.103236 0.111954 0.027210 
0.103091 0.111892 0.026584 
0.102946 0.111830 0.025957 
0.102800 0.111768 0.025329 
0.102654 0.111706 0.024700 
0.102507 0.111644 0.024070 
0.100476 0.110959 0.025636 
0.100329 0.110896 0.025009 
0.100181 0.110833 0.024381 
0.100032 0.110770 0.023752 
0.099884 0.110707 0.023122 
0.099735 0.110644 0.022491 
0.099586 0.110580 0.021858 
0.099436 0.110517 0.021224 
0.099286 0.110453 0.020589 
0.097268 0.109773 0.022177 
0.097117 0.109709 0.021545 
0.096965 0.109645 0.020913 
0.096813 0.109580 0.020279 
0.096662 0.109516 0.019644 
0.096509 0.109451 0.019008 
0.096357 0.109387 0.018370 
0.096204 0.109322 0.017732 
0.096051 0.109257 0.017092 
0.095897 0.109192 0.016451 
0.095744 0.109127 0.015809 
0.095590 0.109062 0.015165 
0.110840 0.114857 0.025559 
0.108492 0.114017 0.025933 
0.108335 0.113945 0.025309 
0.106160 0.113182 0.026305 
0.106001 0.113110 0.025683 
0.105843 0.113038 0.025060 
0.105684 0.112966 0.024435 
0.103683 0.112281 0.026055 
0.103523 0.112208 0.025434 
0.103362 0.112136 0.024812 
0.103201 0.112063 0.024189 
0.103040 0.111990 0.023564 
0.101056 0.111311 0.025186 
0.100894 0.111237 0.024565 
0.100731 0.111164 0.023943 
0.100568 0.111091 0.023320 
0.100405 0.111017 0.022696 
0.100241 0.110943 0.022070 
0.100077 0.110869 0.021444 
0.099913 0.110795 0.020816 
0.099748 0.110721 0.020187 
0.099584 0.110647 0.019557 
0.098512 0.110271 0.020069 
0.097445 0.109897 0.020578 
0.097279 0.109822 0.019951 
0.097112 0.109747 0.019322 
0.096945 0.109672 0.018692 
0.096777 0.109597 0.018061 
0.096610 0.109522 0.017428 
0.096441 0.109446 0.016795 
0.096273 0.109370 0.016160 
0.096104 0.109295 0.015524 
0.095936 0.109219 0.014887 
0.095766 0.109142 0.014249 
0.095597 0.109066 0.013609 
0.107829 0.114053 0.026978 
0.107689 0.113983 0.026349 
0.107548 0.113914 0.025719 
0.105502 0.113179 0.027287 
0.105360 0.113109 0.026661 
0.105218 0.113039 0.026034 
0.105075 0.112969 0.025405 
0.103047 0.112241 0.026971 
0.102903 0.112170 0.026346 
0.102759 0.112099 0.025720 
0.102614 0.112028 0.025093 
0.102469 0.111957 0.024464 
0.102324 0.111886 0.023834 
0.100311 0.111164 0.025407 
0.100165 0.111092 0.024781 
0.100018 0.111020 0.024154 
0.099871 0.110948 0.023526 
0.099724 0.110876 0.022896 
0.099577 0.110804 0.022265 
0.099429 0.110731 0.021633 
0.099281 0.110659 0.021000 
0.099132 0.110586 0.020366 
0.097132 0.109870 0.021960 
0.096982 0.109796 0.021330 
0.096832 0.109723 0.020698 
0.096682 0.109650 0.020064 
0.096531 0.109576 0.019430 
0.096380 0.109503 0.018795 
0.096229 0.109429 0.018158 
0.096078 0.109355 0.017520 
0.095926 0.109281 0.016881 
0.095774 0.109207 0.016241 
0.095622 0.109133 0.015599 
0.095469 0.109058 0.014956 
0.095316 0.108984 0.014312 
0.095163 0.108909 0.013667 
0.110193 0.115013 0.026443 
0.107865 0.114107 0.026788 
0.107716 0.114036 0.026162 
0.105402 0.113135 0.026507 
0.105251 0.113064 0.025882 
0.105101 0.112992 0.025256 
0.103104 0.112241 0.026851 
0.102951 0.112169 0.026228 
0.102799 0.112096 0.025604 
0.102646 0.112024 0.024979 
0.102493 0.111951 0.024352 
0.102340 0.111878 0.023725 
0.100358 0.111134 0.025327 
0.100203 0.111060 0.024703 
0.100048 0.110987 0.024078 
0.099893 0.110913 0.023452 
0.099737 0.110840 0.022824 
0.099582 0.110766 0.022196 
0.099425 0.110692 0.021566 
0.099269 0.110618 0.020935 
0.099112 0.110544 0.020303 
0.097143 0.109804 0.021926 
0.096985 0.109730 0.021298 
0.096827 0.109655 0.020668 
0.096668 0.109580 0.020037 
0.096509 0.109505 0.019405 
0.096350 0.109429 0.018772 
0.096190 0.109354 0.018137 
0.096030 0.109278 0.017502 
0.095870 0.109203 0.016865 
0.095710 0.109127 0.016227 
0.095549 0.109051 0.015588 
0.095388 0.108975 0.014947 
0.095226 0.108898 0.014305 
0.095065 0.108822 0.013662 
0.108296 0.114088 0.025908 
0.108141 0.114012 0.025283 
0.107986 0.113936 0.024657 
0.105995 0.113171 0.026280 
0.105838 0.113095 0.025658 
0.105682 0.113019 0.025035 
0.105525 0.112942 0.024411 
0.103551 0.112184 0.026031 
0.103393 0.112107 0.025410 
0.103234 0.112030 0.024788 
0.103075 0.111953 0.024165 
0.102916 0.111876 0.023541 
0.102757 0.111798 0.022915 
0.100798 0.111046 0.024542 
0.100638 0.110968 0.023921 
0.100477 0.110890 0.023298 
0.100315 0.110812 0.022673 
0.100154 0.110734 0.022048 
0.099992 0.110655 0.021421 
0.099829 0.110577 0.020794 
0.099667 0.110498 0.020165 
0.099504 0.110419 0.019535 
0.099341 0.110340 0.018904 
0.097394 0.109593 0.020557 
0.097230 0.109514 0.019929 
0.097065 0.109434 0.019301 
0.096900 0.109354 0.018671 
0.096735 0.109274 0.018040 
0.096569 0.109194 0.017407 
0.096403 0.109114 0.016774 
0.096237 0.109033 0.016139 
0.096070 0.108953 0.015503 
0.095903 0.108872 0.014866 
0.095736 0.108791 0.014228 
0.095568 0.108710 0.013588 
0.095400 0.108629 0.012948 
0.095232 0.108547 0.012306 
0.095064 0.108466 0.011662 
0.109936 0.115060 0.026597 
0.107624 0.114101 0.026909 
0.107486 0.114027 0.026280 
0.107348 0.113953 0.025651 
0.105328 0.113149 0.027219 
0.105189 0.113074 0.026593 
0.105049 0.112999 0.025965 
0.104908 0.112925 0.025337 
0.102906 0.112127 0.026903 
0.102765 0.112052 0.026278 
0.102623 0.111977 0.025652 
0.102481 0.111901 0.025024 
0.102338 0.111826 0.024396 
0.102195 0.111750 0.023766 
0.100209 0.110959 0.025339 
0.100065 0.110883 0.024713 
0.099920 0.110806 0.024086 
0.099776 0.110730 0.023457 
0.099631 0.110653 0.022828 
0.099486 0.110576 0.022197 
0.099340 0.110499 0.021565 
0.099195 0.110422 0.020932 
0.099048 0.110345 0.020297 
0.098902 0.110267 0.019662 
0.096926 0.109482 0.021262 
0.096779 0.109404 0.020630 
0.096631 0.109326 0.019997 
0.096483 0.109247 0.019362 
0.096334 0.109169 0.018727 
0.096185 0.109091 0.018090 
0.096036 0.109012 0.017452 
0.095887 0.108933 0.016813 
0.095738 0.108854 0.016172 
0.095588 0.108775 0.015531 
0.095438 0.108696 0.014888 
0.095287 0.108617 0.014244 
0.095136 0.108537 0.013599 
0.094985 0.108457 0.012953 
0.094834 0.108378 0.012305 
0.094683 0.108298 0.011656 
0.107598 0.114166 0.027619 
0.107461 0.114092 0.026992 
0.107323 0.114017 0.026363 
0.107186 0.113942 0.025733 
0.105176 0.113113 0.027300 
0.105037 0.113037 0.026674 
0.104898 0.112962 0.026047 
0.104758 0.112886 0.025418 
0.102765 0.112065 0.026984 
0.102625 0.111988 0.026358 
0.102483 0.111912 0.025732 
0.102342 0.111835 0.025105 
0.102201 0.111759 0.024476 
0.102059 0.111682 0.023846 
0.100081 0.110867 0.025419 
0.099938 0.110790 0.024793 
0.099794 0.110712 0.024166 
0.099651 0.110635 0.023537 
0.099506 0.110557 0.022907 
0.099362 0.110479 0.022277 
0.099218 0.110401 0.021645 
0.099073 0.110323 0.021011 
0.098928 0.110244 0.020377 
0.098782 0.110166 0.019741 
0.096815 0.109356 0.021340 
0.096669 0.109277 0.020708 
0.096522 0.109198 0.020075 
0.096374 0.109119 0.019441 
0.096227 0.109039 0.018805 
0.096079 0.108960 0.018168 
0.095931 0.108880 0.017530 
0.095782 0.108800 0.016891 
0.095634 0.108720 0.016251 
0.095485 0.108640 0.015609 
0.095335 0.108559 0.014966 
0.095186 0.108479 0.014322 
0.095036 0.108398 0.013677 
0.094886 0.108317 0.013031 
0.094736 0.108236 0.012383 
0.094585 0.108155 0.011734 
0.094434 0.108074 0.011084 
0.107333 0.114138 0.027065 
0.107197 0.114062 0.026436 
0.107060 0.113985 0.025806 
0.105060 0.113132 0.027373 
0.104922 0.113054 0.026747 
0.104784 0.112977 0.026120 
0.104646 0.112899 0.025491 
0.104507 0.112821 0.024861 
0.102523 0.111975 0.026431 
0.102383 0.111897 0.025805 
0.102243 0.111819 0.025177 
0.102103 0.111740 0.024549 
0.101962 0.111661 0.023919 
0.099994 0.110822 0.025492 
0.099852 0.110743 0.024865 
0.099710 0.110664 0.024238 
0.099567 0.110584 0.023610 
0.099424 0.110505 0.022980 
0.099281 0.110425 0.022349 
0.099137 0.110345 0.021717 
0.098993 0.110265 0.021084 
0.098849 0.110184 0.020449 
0.098705 0.110104 0.019814 
0.096748 0.109271 0.021413 
0.096603 0.109190 0.020781 
0.096457 0.109109 0.020147 
0.096310 0.109027 0.019513 
0.096164 0.108946 0.018877 
0.096017 0.108864 0.018241 
0.095870 0.108783 0.017603 
0.095723 0.108701 0.016963 
0.095575 0.108619 0.016323 
0.095427 0.108537 0.015681 
0.095279 0.108454 0.015038 
0.095131 0.108372 0.014394 
0.094982 0.108289 0.013749 
0.094833 0.108206 0.013103 
0.094684 0.108123 0.012455 
0.094534 0.108040 0.011806 
0.094384 0.107957 0.011156 
0.094234 0.107874 0.010504 
0.094084 0.107790 0.009852 
0.093933 0.107706 0.009198 
0.093782 0.107622 0.008543 
0.107351 0.114119 0.026911 
0.107215 0.114041 0.026282 
0.105089 0.113087 0.027220 
0.104952 0.113008 0.026594 
0.104815 0.112929 0.025966 
0.104677 0.112850 0.025338 
0.104539 0.112771 0.024708 
0.102565 0.111903 0.026278 
0.102426 0.111823 0.025652 
0.102286 0.111743 0.025025 
0.102146 0.111663 0.024396 
0.102006 0.111583 0.023766 
0.100049 0.110722 0.025340 
0.099907 0.110642 0.024713 
0.099765 0.110561 0.024086 
0.099623 0.110480 0.023457 
0.099481 0.110399 0.022828 
0.099339 0.110317 0.022197 
0.099196 0.110236 0.021565 
0.099053 0.110154 0.020932 
0.098909 0.110072 0.020297 
0.098766 0.109990 0.019662 
0.098622 0.109908 0.019025 
0.098478 0.109826 0.018387 
0.096529 0.108970 0.019996 
0.096383 0.108887 0.019362 
0.096237 0.108804 0.018726 
0.096091 0.108721 0.018089 
0.095945 0.108638 0.017451 
0.095798 0.108555 0.016812 
0.095652 0.108471 0.016172 
0.095504 0.108387 0.015530 
0.095357 0.108304 0.014887 
0.095209 0.108220 0.014243 
0.095061 0.108135 0.013598 
0.094913 0.108051 0.012952 
0.094764 0.107966 0.012304 
0.094616 0.107882 0.011655 
0.094466 0.107797 0.011005 
0.094317 0.107712 0.010353 
0.094167 0.107627 0.009701 
0.094017 0.107541 0.009047 
0.093867 0.107456 0.008392 
0.109567 0.115250 0.026293 
0.107304 0.114181 0.026603 
0.107170 0.114100 0.025974 
0.107036 0.114020 0.025344 
0.105056 0.113119 0.026911 
0.104921 0.113038 0.026285 
0.104785 0.112957 0.025657 
0.104649 0.112875 0.025028 
0.102686 0.111983 0.026593 
0.102549 0.111901 0.025968 
0.102411 0.111818 0.025342 
0.102274 0.111736 0.024714 
0.102136 0.111653 0.024086 
0.101997 0.111571 0.023456 
0.100049 0.110686 0.025028 
0.099910 0.110602 0.024402 
0.099770 0.110519 0.023774 
0.099629 0.110435 0.023146 
0.099489 0.110352 0.022516 
0.099348 0.110268 0.021885 
0.099207 0.110184 0.021253 
0.099066 0.110099 0.020619 
0.098924 0.110015 0.019985 
0.098782 0.109930 0.019349 
0.098640 0.109846 0.018712 
0.098498 0.109761 0.018074 
0.096559 0.108881 0.019682 
0.096415 0.108795 0.019048 
0.096271 0.108710 0.018412 
0.096127 0.108624 0.017776 
0.095982 0.108538 0.017137 
0.095838 0.108452 0.016498 
0.095692 0.108366 0.015858 
0.095547 0.108280 0.015216 
0.095402 0.108193 0.014573 
0.095256 0.108106 0.013929 
0.095109 0.108020 0.013284 
0.094963 0.107932 0.012637 
0.094816 0.107845 0.011990 
0.094669 0.107758 0.011341 
0.094522 0.107670 0.010691 
0.094375 0.107583 0.010039 
0.094227 0.107495 0.009386 
0.094079 0.107407 0.008732 
0.107233 0.114210 0.026527 
0.107100 0.114127 0.025898 
0.106967 0.114045 0.025268 
0.104864 0.113038 0.026208 
0.104729 0.112954 0.025581 
0.104594 0.112871 0.024952 
0.104459 0.112788 0.024322 
0.102506 0.111871 0.025891 
0.102370 0.111787 0.025265 
0.102233 0.111703 0.024637 
0.102096 0.111618 0.024009 
0.101959 0.111534 0.023379 
0.101822 0.111449 0.022748 
0.099884 0.110540 0.024324 
0.099745 0.110455 0.023697 
0.099606 0.110370 0.023068 
0.099466 0.110284 0.022439 
0.099327 0.110198 0.021808 
0.099187 0.110112 0.021175 
0.099047 0.110026 0.020542 
0.098906 0.109940 0.019908 
0.098766 0.109854 0.019272 
0.098625 0.109767 0.018635 
0.096697 0.108864 0.020238 
0.096555 0.108777 0.019605 
0.096412 0.108690 0.018970 
0.096270 0.108602 0.018335 
0.096127 0.108515 0.017698 
0.095983 0.108427 0.017060 
0.095840 0.108339 0.016421 
0.095696 0.108251 0.015780 
0.095552 0.108163 0.015138 
0.095407 0.108074 0.014495 
0.095263 0.107986 0.013851 
0.095118 0.107897 0.013206 
0.094973 0.107808 0.012560 
0.094827 0.107719 0.011912 
0.094681 0.107630 0.011263 
0.094535 0.107540 0.010613 
0.094389 0.107451 0.009961 
0.094242 0.107361 0.009308 
0.107145 0.114196 0.026757 
0.107014 0.114113 0.026128 
0.106882 0.114030 0.025498 
0.104923 0.113081 0.027061 
0.104790 0.112997 0.026435 
0.104657 0.112914 0.025807 
0.104523 0.112830 0.025178 
0.104390 0.112746 0.024548 
0.102446 0.111805 0.026114 
0.102311 0.111721 0.025487 
0.102176 0.111636 0.024860 
0.102040 0.111551 0.024231 
0.101904 0.111466 0.023601 
0.099976 0.110533 0.025169 
0.099839 0.110448 0.024543 
0.099702 0.110362 0.023915 
0.099564 0.110276 0.023286 
0.099426 0.110190 0.022656 
0.099288 0.110104 0.022025 
0.099150 0.110018 0.021393 
0.099011 0.109931 0.020759 
0.098872 0.109844 0.020124 
0.098733 0.109758 0.019488 
0.098593 0.109671 0.018851 
0.096675 0.108743 0.020451 
0.096534 0.108655 0.019818 
0.096393 0.108568 0.019183 
0.096252 0.108480 0.018547 
0.096110 0.108392 0.017910 
0.095968 0.108304 0.017272 
0.095826 0.108215 0.016632 
0.095684 0.108127 0.015992 
0.095541 0.108038 0.015350 
0.095398 0.107949 0.014707 
0.095255 0.107860 0.014062 
0.095111 0.107771 0.013417 
0.094967 0.107681 0.012770 
0.094823 0.107592 0.012122 
0.094679 0.107502 0.011473 
0.094534 0.107412 0.010822 
0.094390 0.107322 0.010170 
0.094244 0.107232 0.009517 
0.094099 0.107141 0.008863 
0.106760 0.114185 0.026990 
0.106628 0.114101 0.026361 
0.106497 0.114017 0.025731 
0.104552 0.113044 0.027299 
0.104419 0.112959 0.026672 
0.104285 0.112874 0.026045 
0.104151 0.112789 0.025416 
0.104017 0.112704 0.024786 
0.102088 0.111739 0.026356 
0.101953 0.111653 0.025730 
0.101817 0.111567 0.025103 
0.101681 0.111481 0.024474 
0.101545 0.111395 0.023844 
0.101409 0.111308 0.023213 
0.099494 0.110351 0.024791 
0.099357 0.110264 0.024163 
0.099219 0.110177 0.023535 
0.099080 0.110089 0.022905 
0.098942 0.110002 0.022274 
0.098803 0.109914 0.021642 
0.098664 0.109826 0.021009 
0.098525 0.109738 0.020374 
0.098385 0.109650 0.019738 
0.098245 0.109561 0.019102 
0.098105 0.109473 0.018463 
0.096200 0.108521 0.020072 
0.096059 0.108432 0.019438 
0.095917 0.108343 0.018802 
0.095775 0.108253 0.018166 
0.095633 0.108164 0.017528 
0.095490 0.108074 0.016888 
0.095348 0.107984 0.016248 
0.095205 0.107893 0.015606 
0.095061 0.107803 0.014963 
0.094918 0.107713 0.014319 
0.094774 0.107622 0.013674 
0.094630 0.107531 0.013027 
0.094485 0.107440 0.012380 
0.096115 0.108215 0.009402 
0.095971 0.108124 0.008746 
0.094050 0.107166 0.010429 
0.093905 0.107074 0.009776 
0.106641 0.114261 0.026837 
0.106510 0.114174 0.026208 
0.106379 0.114088 0.025579 
0.104449 0.113089 0.027148 
0.104317 0.113002 0.026522 
0.104184 0.112914 0.025895 
0.104051 0.112827 0.025266 
0.103918 0.112739 0.024637 
0.102004 0.111749 0.026209 
0.101869 0.111660 0.025583 
0.101735 0.111572 0.024955 
0.101599 0.111483 0.024327 
0.101464 0.111394 0.023697 
0.101329 0.111305 0.023067 
0.099429 0.110323 0.024646 
0.099292 0.110233 0.024019 
0.099155 0.110143 0.023391 
0.099017 0.110053 0.022761 
0.098880 0.109963 0.022130 
0.098742 0.109873 0.021498 
0.098604 0.109782 0.020865 
0.098465 0.109691 0.020231 
0.098327 0.109600 0.019595 
0.098188 0.109509 0.018959 
0.098048 0.109418 0.018321 
0.096158 0.108442 0.019932 
0.096018 0.108350 0.019297 
0.095877 0.108258 0.018662 
0.095736 0.108166 0.018025 
0.095594 0.108073 0.017388 
0.095453 0.107981 0.016749 
0.095311 0.107888 0.016108 
0.095169 0.107795 0.015467 
0.095027 0.107702 0.014824 
0.094884 0.107609 0.014180 
0.094741 0.107515 0.013535 
0.094598 0.107422 0.012889 
0.094454 0.107328 0.012241 
0.096072 0.108122 0.009262 
0.095928 0.108028 0.008606 
0.106588 0.114205 0.027031 
0.106458 0.114118 0.026402 
0.106328 0.114031 0.025772 
0.104409 0.113010 0.027339 
0.104277 0.112922 0.026713 
0.104145 0.112835 0.026086 
0.104013 0.112747 0.025457 
0.103881 0.112659 0.024827 
0.101977 0.111646 0.026397 
0.101844 0.111557 0.025771 
0.101710 0.111469 0.025143 
0.101576 0.111380 0.024515 
0.101441 0.111291 0.023885 
0.101307 0.111201 0.023254 
0.099417 0.110196 0.024831 
0.099281 0.110107 0.024204 
0.099145 0.110017 0.023575 
0.099009 0.109926 0.022946 
0.098872 0.109836 0.022315 
0.098735 0.109746 0.021682 
0.098598 0.109655 0.021049 
0.098461 0.109564 0.020415 
0.098323 0.109473 0.019779 
0.098185 0.109382 0.019142 
0.098047 0.109290 0.018504 
0.097908 0.109199 0.017864 
0.096027 0.108199 0.019478 
0.095887 0.108107 0.018843 
0.095747 0.108015 0.018206 
0.095607 0.107922 0.017568 
0.095466 0.107830 0.016928 
0.095325 0.107737 0.016288 
0.095184 0.107644 0.015646 
0.095043 0.107550 0.015003 
0.094901 0.107457 0.014359 
0.094759 0.107363 0.013714 
0.094617 0.107270 0.013068 
0.094475 0.107176 0.012420 
0.096084 0.107993 0.009442 
0.095941 0.107899 0.008786 
0.106533 0.114273 0.026773 
0.106404 0.114184 0.026145 
0.106275 0.114094 0.025515 
0.104369 0.113050 0.027083 
0.104239 0.112960 0.026457 
0.104108 0.112869 0.025830 
0.103978 0.112779 0.025201 
0.103847 0.112689 0.024571 
0.101956 0.111653 0.026142 
0.101824 0.111562 0.025516 
0.101691 0.111470 0.024889 
0.101558 0.111379 0.024260 
0.101425 0.111287 0.023631 
0.101292 0.111195 0.023000 
0.099416 0.110168 0.024578 
0.099281 0.110075 0.023951 
0.099146 0.109983 0.023322 
0.099011 0.109890 0.022693 
0.098876 0.109797 0.022062 
0.098740 0.109704 0.021430 
0.098604 0.109610 0.020797 
0.098468 0.109517 0.020162 
0.098332 0.109423 0.019527 
0.098195 0.109329 0.018890 
0.098058 0.109235 0.018252 
0.096191 0.108214 0.019862 
0.096053 0.108119 0.019227 
0.095914 0.108024 0.018592 
0.095776 0.107929 0.017955 
0.095637 0.107834 0.017317 
0.095497 0.107738 0.016678 
0.095358 0.107643 0.016038 
0.095218 0.107547 0.015396 
0.095078 0.107451 0.014753 
0.094938 0.107355 0.014109 
0.094797 0.107259 0.013464 
0.094657 0.107162 0.012818 
0.094515 0.107065 0.012170 
0.094374 0.106969 0.011521 
0.095973 0.107803 0.008535 
0.106703 0.114324 0.026530 
0.106577 0.114233 0.025902 
0.106450 0.114141 0.025272 
0.104554 0.113074 0.026837 
0.104426 0.112981 0.026210 
0.104299 0.112889 0.025583 
0.104170 0.112796 0.024954 
0.104042 0.112703 0.024324 
0.102161 0.111645 0.025892 
0.102031 0.111552 0.025265 
0.101901 0.111458 0.024638 
0.101771 0.111364 0.024009 
0.101641 0.111270 0.023379 
0.101510 0.111176 0.022748 
0.099643 0.110126 0.024323 
0.099512 0.110032 0.023696 
0.099379 0.109936 0.023067 
0.099247 0.109841 0.022437 
0.099114 0.109746 0.021806 
0.098981 0.109650 0.021174 
0.098848 0.109554 0.020540 
0.098715 0.109459 0.019906 
0.098581 0.109362 0.019270 
0.098447 0.109266 0.018633 
0.098313 0.109170 0.017995 
0.098178 0.109073 0.017355 
0.096320 0.108029 0.018967 
0.096184 0.107932 0.018331 
0.096048 0.107834 0.017694 
0.095912 0.107736 0.017056 
0.095775 0.107639 0.016417 
0.095638 0.107541 0.015776 
0.095501 0.107442 0.015134 
0.095364 0.107344 0.014491 
0.095227 0.107245 0.013847 
0.095089 0.107146 0.013202 
0.094951 0.107047 0.012555 
0.094812 0.106948 0.011907 
0.094674 0.106849 0.011258 
0.094535 0.106749 0.010608 
0.107327 0.114122 0.025514 
0.107202 0.114028 0.024885 
0.107076 0.113934 0.024255 
0.105186 0.112860 0.025823 
0.105059 0.112765 0.025197 
0.104932 0.112670 0.024569 
0.104805 0.112575 0.023941 
0.104677 0.112479 0.023311 
0.102802 0.111414 0.024881 
0.102673 0.111318 0.024255 
0.102544 0.111222 0.023628 
0.102414 0.111125 0.022999 
0.102285 0.111029 0.022370 
0.102155 0.110932 0.021739 
0.100294 0.109875 0.023317 
0.100163 0.109778 0.022689 
0.100031 0.109680 0.022061 
0.099900 0.109582 0.021431 
0.099768 0.109484 0.020800 
0.099636 0.109386 0.020168 
0.099503 0.109288 0.019535 
0.099371 0.109189 0.018901 
0.099238 0.109090 0.018265 
0.099104 0.108991 0.017628 
0.098971 0.108892 0.016990 
0.098837 0.108793 0.016351 
0.096985 0.107742 0.017965 
0.096850 0.107642 0.017330 
0.096714 0.107542 0.016693 
0.096579 0.107442 0.016055 
0.096443 0.107341 0.015416 
0.096307 0.107241 0.014776 
0.096171 0.107140 0.014134 
0.096034 0.107039 0.013492 
0.095898 0.106937 0.012848 
0.095761 0.106836 0.012202 
0.095623 0.106734 0.011556 
0.095486 0.106632 0.010908 
0.095348 0.106530 0.010259 
0.095210 0.106428 0.009609 
0.095072 0.106325 0.008958 
0.094933 0.106223 0.008306 
0.108405 0.115552 0.026489 
0.108273 0.115461 0.025860 
0.106408 0.114337 0.027453 
0.106275 0.114245 0.026827 
0.106141 0.114152 0.026200 
0.106007 0.114059 0.025572 
0.105873 0.113966 0.024942 
0.104024 0.112852 0.026537 
0.103889 0.112759 0.025912 
0.103753 0.112665 0.025285 
0.103618 0.112571 0.024656 
0.101785 0.111467 0.026249 
0.101648 0.111372 0.025625 
0.101510 0.111277 0.024999 
0.101373 0.111182 0.024372 
0.101235 0.111087 0.023744 
0.101097 0.110991 0.023114 
0.100958 0.110895 0.022484 
0.099139 0.109800 0.024089 
0.098999 0.109704 0.023462 
0.098859 0.109607 0.022834 
0.098719 0.109510 0.022205 
0.098579 0.109413 0.021574 
0.098438 0.109316 0.020943 
0.098297 0.109219 0.020310 
0.098156 0.109121 0.019676 
0.098015 0.109024 0.019041 
0.097873 0.108926 0.018404 
0.097731 0.108828 0.017767 
0.095921 0.107739 0.019403 
0.095778 0.107640 0.018769 
0.095634 0.107541 0.018134 
0.095490 0.107442 0.017498 
0.095346 0.107343 0.016860 
0.095202 0.107243 0.016222 
0.095058 0.107144 0.015582 
0.094913 0.107044 0.014941 
0.094768 0.106944 0.014298 
0.094622 0.106844 0.013655 
0.094477 0.106743 0.013010 
0.094331 0.106642 0.012364 
0.094185 0.106542 0.011717 
0.094038 0.106441 0.011068 
0.093891 0.106340 0.010419 
0.093744 0.106238 0.009768 
0.108512 0.115620 0.026181 
0.106538 0.114387 0.027167 
0.106400 0.114291 0.026543 
0.106261 0.114195 0.025917 
0.106123 0.114099 0.025290 
0.104301 0.112971 0.026902 
0.104162 0.112874 0.026279 
0.104021 0.112777 0.025654 
0.103881 0.112680 0.025029 
0.103740 0.112582 0.024402 
0.101934 0.111464 0.026016 
0.101792 0.111366 0.025393 
0.101650 0.111268 0.024769 
0.101508 0.111169 0.024143 
0.101365 0.111070 0.023517 
0.101222 0.110971 0.022889 
0.101079 0.110872 0.022260 
0.099286 0.109762 0.023886 
0.099141 0.109663 0.023260 
0.098997 0.109563 0.022634 
0.098852 0.109463 0.022006 
0.098707 0.109362 0.021378 
0.098561 0.109262 0.020748 
0.098415 0.109161 0.020117 
0.098269 0.109060 0.019484 
0.098123 0.108959 0.018851 
0.097976 0.108857 0.018216 
0.097829 0.108756 0.017580 
0.097682 0.108654 0.016943 
0.095898 0.107550 0.018605 
0.095750 0.107448 0.017971 
0.095601 0.107345 0.017337 
0.095452 0.107243 0.016701 
0.095303 0.107140 0.016064 
0.095153 0.107036 0.015426 
0.095004 0.106933 0.014786 
0.094853 0.106830 0.014146 
0.094703 0.106726 0.013504 
0.094552 0.106622 0.012861 
0.094402 0.106518 0.012216 
0.094250 0.106413 0.011571 
0.094099 0.106309 0.010924 
0.093947 0.106204 0.010276 
0.093795 0.106099 0.009627 
0.093643 0.105994 0.008977 
0.108223 0.115535 0.026589 
0.108102 0.115442 0.025958 
0.106242 0.114274 0.027524 
0.106119 0.114180 0.026897 
0.105996 0.114086 0.026267 
0.105872 0.113991 0.025637 
0.105749 0.113896 0.025006 
0.103904 0.112738 0.026575 
0.103779 0.112643 0.025947 
0.103654 0.112547 0.025318 
0.103529 0.112451 0.024688 
0.101700 0.111304 0.026255 
0.101573 0.111207 0.025628 
0.101446 0.111110 0.025001 
0.101319 0.111013 0.024372 
0.101192 0.110916 0.023742 
0.101064 0.110819 0.023110 
0.100937 0.110721 0.022478 
0.099121 0.109582 0.024057 
0.098992 0.109484 0.023428 
0.098862 0.109385 0.022798 
0.098733 0.109287 0.022167 
0.098603 0.109188 0.021535 
0.098473 0.109089 0.020901 
0.098343 0.108989 0.020266 
0.098212 0.108890 0.019630 
0.098081 0.108790 0.018993 
0.097950 0.108691 0.018355 
0.097819 0.108591 0.017715 
0.096012 0.107458 0.019326 
0.095879 0.107357 0.018690 
0.095747 0.107257 0.018053 
0.095614 0.107155 0.017414 
0.095480 0.107054 0.016775 
0.095347 0.106953 0.016134 
0.095213 0.106851 0.015492 
0.095079 0.106749 0.014849 
0.094945 0.106647 0.014205 
0.094810 0.106545 0.013559 
0.094675 0.106442 0.012913 
0.092877 0.105317 0.014555 
0.092741 0.105213 0.013912 
0.092605 0.105110 0.013268 
0.094134 0.106030 0.010313 
0.093998 0.105927 0.009660 
0.093861 0.105823 0.009006 
0.093725 0.105720 0.008350 
0.108165 0.115723 0.027278 
0.108038 0.115628 0.026649 
0.107909 0.115534 0.026019 
0.106087 0.114337 0.027608 
0.105957 0.114242 0.026981 
0.105828 0.114146 0.026354 
0.105698 0.114050 0.025725 
0.105568 0.113954 0.025096 
0.103760 0.112768 0.026687 
0.103629 0.112671 0.026061 
0.103497 0.112574 0.025433 
0.103365 0.112477 0.024805 
0.101574 0.111301 0.026394 
0.101440 0.111203 0.025769 
0.101307 0.111105 0.025143 
0.101173 0.111007 0.024515 
0.101039 0.110908 0.023887 
0.100905 0.110809 0.023257 
0.100771 0.110710 0.022626 
0.098992 0.109544 0.024227 
0.098856 0.109444 0.023600 
0.098721 0.109344 0.022972 
0.098584 0.109244 0.022342 
0.098448 0.109144 0.021711 
0.098311 0.109043 0.021079 
0.098174 0.108943 0.020446 
0.098037 0.108842 0.019812 
0.097900 0.108741 0.019176 
0.097762 0.108640 0.018540 
0.097624 0.108538 0.017902 
0.095854 0.107378 0.019534 
0.095715 0.107276 0.018900 
0.095576 0.107174 0.018264 
0.095436 0.107071 0.017628 
0.095296 0.106968 0.016990 
0.095156 0.106866 0.016351 
0.095016 0.106763 0.015710 
0.094875 0.106659 0.015069 
0.094734 0.106556 0.014426 
0.094592 0.106452 0.013782 
0.094451 0.106348 0.013137 
0.092691 0.105195 0.014802 
0.092548 0.105090 0.014160 
0.092405 0.104985 0.013518 
